ply
format ascii 1.0
element vertex 1625
property float x
property float y
property float z
end_header
1.221090 -0.587066 -2.074804
1.232233 -0.587066 -2.074804
1.243377 -0.587066 -2.074804
1.254520 -0.587066 -2.074804
-0.227543 -0.575923 -2.014401
-0.216400 -0.575923 -2.010557
-0.160683 -0.564780 -1.982337
-0.149540 -0.564780 -1.978466
-0.138397 -0.564780 -1.974616
-0.071537 -0.553636 -1.942150
-0.060393 -0.553636 -1.938125
-0.049250 -0.553636 -1.942693
-0.038107 -0.553636 -1.939017
-0.026963 -0.553636 -1.934958
0.039897 -0.542493 -1.902985
0.051040 -0.542493 -1.898855
0.062183 -0.542493 -1.894720
0.129043 -0.531350 -1.862770
0.140187 -0.531350 -1.858577
0.151330 -0.531350 -1.854198
0.207047 -0.520206 -1.826140
0.218190 -0.520206 -1.822043
0.229333 -0.520206 -1.817995
0.296193 -0.509063 -1.785878
0.307337 -0.509063 -1.781870
0.351910 -0.509063 -1.780535
0.363053 -0.509063 -1.785846
0.374197 -0.509063 -1.781488
0.385340 -0.509063 -1.777293
0.452200 -0.497920 -1.745306
0.463343 -0.497920 -1.741067
0.474487 -0.497920 -1.737070
0.530203 -0.486776 -1.709323
0.541347 -0.486776 -1.704974
0.552490 -0.486776 -1.700496
0.619350 -0.475633 -1.668912
0.630493 -0.475633 -1.664664
0.641637 -0.475633 -1.660401
0.708497 -0.464490 -1.628576
0.719640 -0.464490 -1.624167
-0.205257 -0.575923 -2.006092
-0.194113 -0.575923 -2.002306
-0.182970 -0.575923 -1.997723
-0.127253 -0.564780 -1.969891
-0.116110 -0.564780 -1.965972
-0.104967 -0.564780 -1.962040
-0.093823 -0.564780 -1.957567
-0.015820 -0.553636 -1.930733
-0.004677 -0.553636 -1.926637
0.006467 -0.553636 -1.922524
0.073327 -0.542493 -1.890576
0.084470 -0.542493 -1.886418
0.095613 -0.542493 -1.882265
0.162473 -0.531350 -1.850210
0.173617 -0.531350 -1.845973
0.184760 -0.531350 -1.841729
0.240477 -0.520206 -1.813976
0.251620 -0.520206 -1.809735
0.262763 -0.520206 -1.805700
0.318480 -0.509063 -1.768174
0.329623 -0.509063 -1.764348
0.396483 -0.509063 -1.773519
0.407627 -0.509063 -1.769199
0.418770 -0.509063 -1.764746
0.485630 -0.497920 -1.733058
0.496773 -0.497920 -1.728767
0.563633 -0.486776 -1.696492
0.574777 -0.486776 -1.692401
0.585920 -0.486776 -1.688340
0.652780 -0.475633 -1.656121
0.663923 -0.475633 -1.652347
0.730783 -0.464490 -1.618227
-0.171827 -0.575923 -1.993908
-0.160683 -0.575923 -1.989734
-0.149540 -0.575923 -1.985447
-0.082680 -0.564780 -1.953332
-0.071537 -0.564780 -1.949350
-0.060393 -0.564780 -1.945354
0.017610 -0.553636 -1.918395
0.028753 -0.553636 -1.914246
0.039897 -0.553636 -1.910079
0.106757 -0.542493 -1.878099
0.117900 -0.542493 -1.873923
0.129043 -0.542493 -1.869961
0.195903 -0.531350 -1.837665
0.207047 -0.531350 -1.833699
0.218190 -0.531350 -1.829710
0.273907 -0.520206 -1.801550
0.285050 -0.520206 -1.797373
0.296193 -0.520206 -1.793190
0.363053 -0.520206 -1.793028
0.429913 -0.509063 -1.761105
0.441057 -0.509063 -1.756647
0.452200 -0.509063 -1.752953
0.507917 -0.497920 -1.724914
0.519060 -0.497920 -1.720433
0.530203 -0.497920 -1.716248
0.597063 -0.486776 -1.684242
0.608207 -0.486776 -1.680109
0.619350 -0.486776 -1.675940
0.675067 -0.475633 -1.647927
0.686210 -0.475633 -1.644135
0.697353 -0.475633 -1.639793
0.741927 -0.464490 -1.606623
0.753070 -0.453346 -1.570843
0.764213 -0.453346 -1.566257
0.775357 -0.453346 -1.562625
-1.241587 -0.598210 -2.057404
-1.230443 -0.598210 -2.057404
-1.219300 -0.598210 -2.057404
-1.208157 -0.598210 -2.057404
-1.197013 -0.598210 -2.057404
-1.185870 -0.598210 -2.057404
-1.174727 -0.598210 -2.057404
-1.163583 -0.598210 -2.057404
-1.152440 -0.598210 -2.057404
-1.141297 -0.598210 -2.057404
-1.130153 -0.598210 -2.057404
-1.119010 -0.598210 -2.057404
-1.107867 -0.598210 -2.057404
-1.096723 -0.598210 -2.057404
-1.085580 -0.598210 -2.057404
-1.074437 -0.598210 -2.057404
-1.063293 -0.598210 -2.057404
-1.052150 -0.598210 -2.057404
-1.041007 -0.598210 -2.057404
-1.029863 -0.598210 -2.057404
-1.018720 -0.598210 -2.057404
-1.007577 -0.598210 -2.057404
-0.996433 -0.598210 -2.057404
-0.985290 -0.598210 -2.057404
-0.974147 -0.598210 -2.057404
-0.963003 -0.598210 -2.057404
-0.951860 -0.598210 -2.057404
-0.940717 -0.598210 -2.057404
-0.929573 -0.598210 -2.057404
-0.918430 -0.598210 -2.057404
-0.907287 -0.598210 -2.057404
-0.896143 -0.598210 -2.057404
-0.885000 -0.598210 -2.057404
-0.873857 -0.598210 -2.057404
-0.862713 -0.598210 -2.057404
-0.851570 -0.598210 -2.057404
-0.840427 -0.598210 -2.057404
-0.829283 -0.598210 -2.057404
-0.818140 -0.598210 -2.057404
-0.806997 -0.598210 -2.057404
-0.795853 -0.598210 -2.057404
-0.784710 -0.598210 -2.057404
-0.773567 -0.598210 -2.057404
-0.762423 -0.598210 -2.057404
-0.751280 -0.598210 -2.057404
-0.740137 -0.598210 -2.057404
-0.728993 -0.598210 -2.057404
-0.717850 -0.598210 -2.057404
-0.706707 -0.598210 -2.057404
-0.695563 -0.598210 -2.057404
-0.684420 -0.598210 -2.057404
-0.673277 -0.598210 -2.057404
-0.662133 -0.598210 -2.057404
-0.650990 -0.598210 -2.057404
-0.639847 -0.598210 -2.057404
-0.628703 -0.598210 -2.057404
-0.617560 -0.598210 -2.057404
-0.606417 -0.598210 -2.057404
-0.595273 -0.598210 -2.057404
-0.584130 -0.598210 -2.057404
-0.572987 -0.598210 -2.057404
-0.561843 -0.598210 -2.057404
-0.550700 -0.598210 -2.057404
-0.539557 -0.598210 -2.057404
-0.528413 -0.598210 -2.057404
-0.517270 -0.598210 -2.057404
-0.506127 -0.598210 -2.057404
-0.494983 -0.598210 -2.057404
-0.483840 -0.598210 -2.057404
-0.472697 -0.598210 -2.057404
-0.461553 -0.598210 -2.057404
-0.450410 -0.598210 -2.057404
-0.439267 -0.598210 -2.057404
-0.428123 -0.598210 -2.057404
-0.416980 -0.598210 -2.057404
-0.405837 -0.598210 -2.057404
-0.394693 -0.598210 -2.057404
-0.383550 -0.598210 -2.057404
-0.372407 -0.598210 -2.057404
-0.361263 -0.598210 -2.057404
-0.350120 -0.598210 -2.057404
-0.338977 -0.598210 -2.057404
-0.327833 -0.598210 -2.057404
-0.316690 -0.598210 -2.057404
-0.305547 -0.598210 -2.057404
-0.294403 -0.598210 -2.057404
-0.283260 -0.598210 -2.057404
-0.272117 -0.598210 -2.057404
-0.260973 -0.598210 -2.057404
-0.249830 -0.598210 -2.057404
-0.238687 -0.598210 -2.057404
-0.227543 -0.598210 -2.057404
-0.216400 -0.598210 -2.057404
-0.138397 -0.575923 -1.981586
-0.127253 -0.575923 -1.977486
-0.116110 -0.575923 -1.973028
-0.049250 -0.564780 -1.941339
-0.038107 -0.564780 -1.937308
-0.026963 -0.564780 -1.933043
0.051040 -0.553636 -1.905896
0.062183 -0.553636 -1.901690
0.073327 -0.553636 -1.897748
0.084470 -0.553636 -1.893979
0.140187 -0.542493 -1.865591
0.151330 -0.542493 -1.861351
0.162473 -0.542493 -1.857619
0.229333 -0.531350 -1.825484
0.240477 -0.531350 -1.821196
0.307337 -0.520206 -1.788940
0.318480 -0.520206 -1.782461
0.351910 -0.520206 -1.787839
0.374197 -0.520206 -1.788709
0.385340 -0.520206 -1.784722
0.396483 -0.520206 -1.780382
0.463343 -0.509063 -1.748437
0.474487 -0.509063 -1.744139
0.541347 -0.497920 -1.712370
0.552490 -0.497920 -1.708276
0.563633 -0.497920 -1.703686
0.630493 -0.486776 -1.671730
0.641637 -0.486776 -1.667971
0.708497 -0.475633 -1.635499
0.719640 -0.475633 -1.631576
1.042797 -0.598210 -2.057404
1.053940 -0.598210 -2.057404
1.065083 -0.598210 -2.057404
1.076227 -0.598210 -2.057404
1.087370 -0.598210 -2.057404
1.098513 -0.598210 -2.057404
1.109657 -0.598210 -2.057404
1.120800 -0.598210 -2.057404
1.131943 -0.598210 -2.057404
1.143087 -0.598210 -2.057404
1.154230 -0.598210 -2.057404
1.165373 -0.598210 -2.057404
1.176517 -0.598210 -2.057404
1.187660 -0.598210 -2.057404
1.198803 -0.598210 -2.057404
1.209947 -0.598210 -2.057404
1.221090 -0.598210 -2.057404
1.232233 -0.598210 -2.057404
1.243377 -0.598210 -2.057404
-0.160683 -0.587066 -1.996994
-0.104967 -0.575923 -1.969122
-0.093823 -0.575923 -1.965198
-0.082680 -0.575923 -1.960754
-0.015820 -0.564780 -1.930122
-0.004677 -0.564780 -1.929225
0.006467 -0.564780 -1.928460
0.017610 -0.564780 -1.924930
0.028753 -0.564780 -1.921678
0.095613 -0.553636 -1.889789
0.106757 -0.553636 -1.885509
0.173617 -0.542493 -1.853186
0.184760 -0.542493 -1.849132
0.195903 -0.542493 -1.845221
0.251620 -0.531350 -1.816900
0.262763 -0.531350 -1.812592
0.273907 -0.531350 -1.809103
0.329623 -0.520206 -1.771185
0.407627 -0.520206 -1.776538
0.418770 -0.520206 -1.772252
0.429913 -0.520206 -1.767805
0.485630 -0.509063 -1.740153
0.496773 -0.509063 -1.736152
0.507917 -0.509063 -1.731964
0.574777 -0.497920 -1.699830
0.585920 -0.497920 -1.695502
0.652780 -0.486776 -1.663722
0.663923 -0.486776 -1.659456
0.675067 -0.486776 -1.655175
0.730783 -0.475633 -1.625715
-0.149540 -0.587066 -1.993174
-0.138397 -0.587066 -1.988552
-0.127253 -0.587066 -1.984700
-0.071537 -0.575923 -1.956511
-0.060393 -0.575923 -1.952539
-0.049250 -0.575923 -1.948551
-0.038107 -0.575923 -1.944549
0.039897 -0.564780 -1.917542
0.051040 -0.564780 -1.913385
0.062183 -0.564780 -1.909213
0.117900 -0.553636 -1.881212
0.129043 -0.553636 -1.877377
0.140187 -0.553636 -1.873208
0.207047 -0.542493 -1.841053
0.218190 -0.542493 -1.836805
0.229333 -0.542493 -1.832549
0.285050 -0.531350 -1.804780
0.296193 -0.531350 -1.800446
0.307337 -0.531350 -1.796104
0.351910 -0.531350 -1.794966
0.363053 -0.531350 -1.800162
0.374197 -0.531350 -1.795882
0.441057 -0.520206 -1.764108
0.452200 -0.520206 -1.759692
0.519060 -0.509063 -1.727924
0.530203 -0.509063 -1.723664
0.541347 -0.509063 -1.719283
0.597063 -0.497920 -1.691454
0.608207 -0.497920 -1.687370
0.619350 -0.497920 -1.683251
0.686210 -0.486776 -1.651139
0.697353 -0.486776 -1.647179
0.741927 -0.475633 -1.613609
0.753070 -0.464490 -1.578024
0.764213 -0.464490 -1.573474
0.775357 -0.464490 -1.569874
-0.116110 -0.587066 -1.980700
-0.104967 -0.587066 -1.976161
-0.093823 -0.587066 -1.972264
-0.026963 -0.575923 -1.939889
-0.015820 -0.575923 -1.935856
0.073327 -0.564780 -1.905021
0.084470 -0.564780 -1.900810
0.095613 -0.564780 -1.896581
0.151330 -0.553636 -1.869025
0.162473 -0.553636 -1.864645
0.173617 -0.553636 -1.860652
0.240477 -0.542493 -1.828435
0.251620 -0.542493 -1.824405
0.262763 -0.542493 -1.820351
0.318480 -0.531350 -1.782660
0.385340 -0.531350 -1.792094
0.396483 -0.531350 -1.787693
0.407627 -0.531350 -1.783825
0.463343 -0.520206 -1.756001
0.474487 -0.520206 -1.751549
0.485630 -0.520206 -1.747771
0.552490 -0.509063 -1.715320
0.563633 -0.509063 -1.711519
0.630493 -0.497920 -1.679095
0.641637 -0.497920 -1.675070
0.652780 -0.497920 -1.671190
0.708497 -0.486776 -1.643185
0.719640 -0.486776 -1.638840
-1.241587 -0.609353 -2.041045
-1.230443 -0.609353 -2.041045
-1.219300 -0.609353 -2.041045
-1.208157 -0.609353 -2.041045
-1.197013 -0.609353 -2.041045
-1.185870 -0.609353 -2.041045
-1.174727 -0.609353 -2.041045
-1.163583 -0.609353 -2.041045
-1.152440 -0.609353 -2.041045
-1.141297 -0.609353 -2.041045
-1.130153 -0.609353 -2.041045
-1.119010 -0.609353 -2.041045
-1.107867 -0.609353 -2.041045
-1.096723 -0.609353 -2.041045
-1.085580 -0.609353 -2.041045
-1.074437 -0.609353 -2.041045
-1.063293 -0.609353 -2.041045
-1.052150 -0.609353 -2.041045
-1.041007 -0.609353 -2.041045
-1.029863 -0.609353 -2.041045
-1.018720 -0.609353 -2.041045
-1.007577 -0.609353 -2.041045
-0.996433 -0.609353 -2.041045
-0.985290 -0.609353 -2.041045
-0.974147 -0.609353 -2.041045
-0.963003 -0.609353 -2.041045
-0.951860 -0.609353 -2.041045
-0.940717 -0.609353 -2.041045
-0.929573 -0.609353 -2.041045
-0.918430 -0.609353 -2.041045
-0.907287 -0.609353 -2.041045
-0.896143 -0.609353 -2.041045
-0.885000 -0.609353 -2.041045
-0.873857 -0.609353 -2.041045
-0.862713 -0.609353 -2.041045
-0.851570 -0.609353 -2.041045
-0.840427 -0.609353 -2.041045
-0.829283 -0.609353 -2.041045
-0.818140 -0.609353 -2.041045
-0.806997 -0.609353 -2.041045
-0.795853 -0.609353 -2.041045
-0.784710 -0.609353 -2.041045
-0.773567 -0.609353 -2.041045
-0.762423 -0.609353 -2.041045
-0.751280 -0.609353 -2.041045
-0.740137 -0.609353 -2.041045
-0.728993 -0.609353 -2.041045
-0.717850 -0.609353 -2.041045
-0.706707 -0.609353 -2.041045
-0.695563 -0.609353 -2.041045
-0.684420 -0.609353 -2.041045
-0.673277 -0.609353 -2.041045
-0.662133 -0.609353 -2.041045
-0.650990 -0.609353 -2.041045
-0.639847 -0.609353 -2.041045
-0.628703 -0.609353 -2.041045
-0.617560 -0.609353 -2.041045
-0.606417 -0.609353 -2.041045
-0.595273 -0.609353 -2.041045
-0.584130 -0.609353 -2.041045
-0.572987 -0.609353 -2.041045
-0.561843 -0.609353 -2.041045
-0.550700 -0.609353 -2.041045
-0.539557 -0.609353 -2.041045
-0.528413 -0.609353 -2.041045
-0.517270 -0.609353 -2.041045
-0.506127 -0.609353 -2.041045
-0.494983 -0.609353 -2.041045
-0.483840 -0.609353 -2.041045
-0.472697 -0.609353 -2.041045
-0.461553 -0.609353 -2.041045
-0.450410 -0.609353 -2.041045
-0.439267 -0.609353 -2.041045
-0.428123 -0.609353 -2.041045
-0.416980 -0.609353 -2.041045
-0.405837 -0.609353 -2.041045
-0.394693 -0.609353 -2.041045
-0.383550 -0.609353 -2.041045
-0.372407 -0.609353 -2.041045
-0.361263 -0.609353 -2.041045
-0.350120 -0.609353 -2.041045
-0.338977 -0.609353 -2.041045
-0.327833 -0.609353 -2.041045
-0.316690 -0.609353 -2.041045
-0.305547 -0.609353 -2.041045
-0.294403 -0.609353 -2.041045
-0.283260 -0.609353 -2.041045
-0.272117 -0.609353 -2.041045
-0.260973 -0.609353 -2.041045
-0.249830 -0.609353 -2.041045
-0.238687 -0.609353 -2.041045
-0.227543 -0.609353 -2.041045
-0.216400 -0.609353 -2.041045
-0.205257 -0.609353 -2.041045
-0.194113 -0.609353 -2.041045
-0.182970 -0.609353 -2.041045
-0.171827 -0.609353 -2.041045
-0.160683 -0.609353 -2.041045
-0.149540 -0.609353 -2.041045
-0.082680 -0.587066 -1.968352
-0.071537 -0.587066 -1.963628
-0.060393 -0.587066 -1.959683
-0.004677 -0.575923 -1.931633
0.006467 -0.575923 -1.927559
0.017610 -0.575923 -1.923469
0.106757 -0.564780 -1.892428
0.117900 -0.564780 -1.888466
0.129043 -0.564780 -1.884600
0.184760 -0.553636 -1.856451
0.195903 -0.553636 -1.852241
0.207047 -0.553636 -1.848022
0.273907 -0.542493 -1.816256
0.285050 -0.542493 -1.811957
0.329623 -0.531350 -1.779057
0.418770 -0.531350 -1.779478
0.429913 -0.531350 -1.775268
0.441057 -0.531350 -1.771517
0.496773 -0.520206 -1.743367
0.507917 -0.520206 -1.739236
0.519060 -0.520206 -1.735142
0.574777 -0.509063 -1.706932
0.585920 -0.509063 -1.702758
0.597063 -0.509063 -1.698638
0.663923 -0.497920 -1.667030
0.675067 -0.497920 -1.662779
0.730783 -0.486776 -1.630952
1.020510 -0.609353 -2.041045
1.031653 -0.609353 -2.041045
1.042797 -0.609353 -2.041045
1.053940 -0.609353 -2.041045
1.065083 -0.609353 -2.041045
1.076227 -0.609353 -2.041045
1.087370 -0.609353 -2.041045
1.098513 -0.609353 -2.041045
1.109657 -0.609353 -2.041045
1.120800 -0.609353 -2.041045
1.131943 -0.609353 -2.041045
1.143087 -0.609353 -2.041045
1.154230 -0.609353 -2.041045
1.165373 -0.609353 -2.041045
1.176517 -0.609353 -2.041045
1.187660 -0.609353 -2.041045
1.198803 -0.609353 -2.041045
1.209947 -0.609353 -2.041045
1.221090 -0.609353 -2.041045
1.232233 -0.609353 -2.041045
-0.049250 -0.587066 -1.955722
-0.038107 -0.587066 -1.951744
-0.026963 -0.587066 -1.947135
0.028753 -0.575923 -1.919363
0.039897 -0.575923 -1.915937
0.051040 -0.575923 -1.914065
0.062183 -0.575923 -1.912667
0.073327 -0.575923 -1.910742
0.084470 -0.575923 -1.908345
0.140187 -0.564780 -1.880294
0.151330 -0.564780 -1.875967
0.162473 -0.564780 -1.871689
0.218190 -0.553636 -1.844006
0.229333 -0.553636 -1.840058
0.240477 -0.553636 -1.835918
0.296193 -0.542493 -1.807648
0.307337 -0.542493 -1.803879
0.351910 -0.542493 -1.802046
0.363053 -0.542493 -1.807300
0.374197 -0.542493 -1.803007
0.385340 -0.542493 -1.799409
0.452200 -0.531350 -1.767216
0.463343 -0.531350 -1.762982
0.530203 -0.520206 -1.730934
0.541347 -0.520206 -1.726875
0.608207 -0.509063 -1.694567
0.619350 -0.509063 -1.690497
0.630493 -0.509063 -1.686190
0.686210 -0.497920 -1.658512
0.697353 -0.497920 -1.654229
0.708497 -0.497920 -1.649996
0.741927 -0.486776 -1.621494
0.753070 -0.475633 -1.585142
0.764213 -0.475633 -1.580628
0.775357 -0.475633 -1.577059
-0.082680 -0.598210 -1.975401
-0.071537 -0.598210 -1.971498
-0.015820 -0.587066 -1.943121
-0.004677 -0.587066 -1.938911
0.006467 -0.587066 -1.934866
0.095613 -0.575923 -1.904034
0.106757 -0.575923 -1.899928
0.117900 -0.575923 -1.895693
0.173617 -0.564780 -1.867885
0.184760 -0.564780 -1.863696
0.195903 -0.564780 -1.859313
0.251620 -0.553636 -1.831887
0.262763 -0.553636 -1.827627
0.273907 -0.553636 -1.823359
0.318480 -0.542493 -1.791420
0.329623 -0.542493 -1.786137
0.396483 -0.542493 -1.795033
0.407627 -0.542493 -1.791064
0.418770 -0.542493 -1.786708
0.474487 -0.531350 -1.758944
0.485630 -0.531350 -1.754644
0.496773 -0.531350 -1.750736
0.552490 -0.520206 -1.722318
0.563633 -0.520206 -1.718464
0.574777 -0.520206 -1.714580
0.641637 -0.509063 -1.682250
0.652780 -0.509063 -1.678072
0.719640 -0.497920 -1.645920
0.730783 -0.497920 -1.641915
-0.060393 -0.598210 -1.966786
-0.049250 -0.598210 -1.962849
-0.038107 -0.598210 -1.958898
0.017610 -0.587066 -1.930805
0.028753 -0.587066 -1.926725
0.039897 -0.587066 -1.922629
0.129043 -0.575923 -1.891692
0.140187 -0.575923 -1.887563
0.207047 -0.564780 -1.855441
0.218190 -0.564780 -1.851547
0.285050 -0.553636 -1.819081
0.296193 -0.553636 -1.814938
0.363053 -0.553636 -1.814512
0.374197 -0.553636 -1.811009
0.429913 -0.542493 -1.782682
0.441057 -0.542493 -1.778574
0.507917 -0.531350 -1.746493
0.519060 -0.531350 -1.742405
0.530203 -0.531350 -1.738301
0.585920 -0.520206 -1.710211
0.597063 -0.520206 -1.705939
0.608207 -0.520206 -1.701831
0.663923 -0.509063 -1.673856
0.675067 -0.509063 -1.669897
0.686210 -0.509063 -1.666012
-1.230443 -0.620496 -2.024297
-1.219300 -0.620496 -2.024297
-1.208157 -0.620496 -2.024297
-1.197013 -0.620496 -2.024297
-1.185870 -0.620496 -2.024297
-1.174727 -0.620496 -2.024297
-1.163583 -0.620496 -2.024297
-1.152440 -0.620496 -2.024297
-1.141297 -0.620496 -2.024297
-1.130153 -0.620496 -2.024297
-1.119010 -0.620496 -2.024297
-1.107867 -0.620496 -2.024297
-1.096723 -0.620496 -2.024297
-1.085580 -0.620496 -2.024297
-1.074437 -0.620496 -2.024297
-1.063293 -0.620496 -2.024297
-1.052150 -0.620496 -2.024297
-1.041007 -0.620496 -2.024297
-1.029863 -0.620496 -2.024297
-1.018720 -0.620496 -2.024297
-1.007577 -0.620496 -2.024297
-0.996433 -0.620496 -2.024297
-0.985290 -0.620496 -2.024297
-0.974147 -0.620496 -2.024297
-0.963003 -0.620496 -2.024297
-0.951860 -0.620496 -2.024297
-0.940717 -0.620496 -2.024297
-0.929573 -0.620496 -2.024297
-0.918430 -0.620496 -2.024297
-0.907287 -0.620496 -2.024297
-0.896143 -0.620496 -2.024297
-0.885000 -0.620496 -2.024297
-0.873857 -0.620496 -2.024297
-0.862713 -0.620496 -2.024297
-0.851570 -0.620496 -2.024297
-0.840427 -0.620496 -2.024297
-0.829283 -0.620496 -2.024297
-0.818140 -0.620496 -2.024297
-0.806997 -0.620496 -2.024297
-0.795853 -0.620496 -2.024297
-0.784710 -0.620496 -2.024297
-0.773567 -0.620496 -2.024297
-0.762423 -0.620496 -2.024297
-0.751280 -0.620496 -2.024297
-0.740137 -0.620496 -2.024297
-0.728993 -0.620496 -2.024297
-0.717850 -0.620496 -2.024297
-0.706707 -0.620496 -2.024297
-0.695563 -0.620496 -2.024297
-0.684420 -0.620496 -2.024297
-0.673277 -0.620496 -2.024297
-0.662133 -0.620496 -2.024297
-0.650990 -0.620496 -2.024297
-0.639847 -0.620496 -2.024297
-0.628703 -0.620496 -2.024297
-0.617560 -0.620496 -2.024297
-0.606417 -0.620496 -2.024297
-0.595273 -0.620496 -2.024297
-0.584130 -0.620496 -2.024297
-0.572987 -0.620496 -2.024297
-0.561843 -0.620496 -2.024297
-0.550700 -0.620496 -2.024297
-0.539557 -0.620496 -2.024297
-0.528413 -0.620496 -2.024297
-0.517270 -0.620496 -2.024297
-0.506127 -0.620496 -2.024297
-0.494983 -0.620496 -2.024297
-0.483840 -0.620496 -2.024297
-0.472697 -0.620496 -2.024297
-0.461553 -0.620496 -2.024297
-0.450410 -0.620496 -2.024297
-0.439267 -0.620496 -2.024297
-0.428123 -0.620496 -2.024297
-0.416980 -0.620496 -2.024297
-0.405837 -0.620496 -2.024297
-0.394693 -0.620496 -2.024297
-0.383550 -0.620496 -2.024297
-0.372407 -0.620496 -2.024297
-0.361263 -0.620496 -2.024297
-0.350120 -0.620496 -2.024297
-0.338977 -0.620496 -2.024297
-0.327833 -0.620496 -2.024297
-0.316690 -0.620496 -2.024297
-0.305547 -0.620496 -2.024297
-0.294403 -0.620496 -2.024297
-0.283260 -0.620496 -2.024297
-0.272117 -0.620496 -2.024297
-0.260973 -0.620496 -2.024297
-0.249830 -0.620496 -2.024297
-0.238687 -0.620496 -2.024297
-0.227543 -0.620496 -2.024297
-0.216400 -0.620496 -2.024297
-0.205257 -0.620496 -2.024297
-0.194113 -0.620496 -2.024297
-0.182970 -0.620496 -2.024297
-0.171827 -0.620496 -2.024297
-0.160683 -0.620496 -2.024297
-0.149540 -0.620496 -2.024297
-0.138397 -0.620496 -2.024297
-0.127253 -0.620496 -2.024297
-0.116110 -0.620496 -2.024297
-0.104967 -0.620496 -2.024297
-0.093823 -0.620496 -2.024297
-0.082680 -0.620496 -2.024297
-0.026963 -0.598210 -1.954931
-0.015820 -0.598210 -1.950341
-0.004677 -0.598210 -1.946339
0.051040 -0.587066 -1.918515
0.062183 -0.587066 -1.914382
0.073327 -0.587066 -1.910233
0.151330 -0.575923 -1.883427
0.162473 -0.575923 -1.879283
0.173617 -0.575923 -1.875131
0.229333 -0.564780 -1.847343
0.240477 -0.564780 -1.843121
0.251620 -0.564780 -1.838892
0.307337 -0.553636 -1.810816
0.351910 -0.553636 -1.809736
0.385340 -0.553636 -1.806666
0.396483 -0.553636 -1.802316
0.452200 -0.542493 -1.774429
0.463343 -0.542493 -1.770245
0.474487 -0.542493 -1.766423
0.541347 -0.531350 -1.733944
0.552490 -0.531350 -1.730066
0.619350 -0.520206 -1.697709
0.630493 -0.520206 -1.693573
0.697353 -0.509063 -1.661836
0.708497 -0.509063 -1.657568
0.741927 -0.497920 -1.628364
0.753070 -0.486776 -1.592200
0.764213 -0.486776 -1.588628
0.775357 -0.486776 -1.584182
1.009367 -0.620496 -2.024297
1.020510 -0.620496 -2.024297
1.031653 -0.620496 -2.024297
1.042797 -0.620496 -2.024297
1.053940 -0.620496 -2.024297
1.065083 -0.620496 -2.024297
1.076227 -0.620496 -2.024297
1.087370 -0.620496 -2.024297
1.098513 -0.620496 -2.024297
1.109657 -0.620496 -2.024297
1.120800 -0.620496 -2.024297
1.131943 -0.620496 -2.024297
1.143087 -0.620496 -2.024297
1.154230 -0.620496 -2.024297
1.165373 -0.620496 -2.024297
1.176517 -0.620496 -2.024297
1.187660 -0.620496 -2.024297
1.198803 -0.620496 -2.024297
1.209947 -0.620496 -2.024297
1.221090 -0.620496 -2.024297
0.006467 -0.598210 -1.942130
0.017610 -0.598210 -1.938094
0.028753 -0.598210 -1.934044
0.084470 -0.587066 -1.906064
0.095613 -0.587066 -1.901878
0.106757 -0.587066 -1.898124
0.184760 -0.575923 -1.870972
0.195903 -0.575923 -1.866803
0.207047 -0.575923 -1.862747
0.262763 -0.564780 -1.834831
0.273907 -0.564780 -1.830409
0.285050 -0.564780 -1.826622
0.318480 -0.553636 -1.797373
0.329623 -0.553636 -1.793171
0.407627 -0.553636 -1.798254
0.418770 -0.553636 -1.793937
0.429913 -0.553636 -1.790038
0.485630 -0.542493 -1.762074
0.496773 -0.542493 -1.757720
0.507917 -0.542493 -1.753701
0.563633 -0.531350 -1.725511
0.574777 -0.531350 -1.721511
0.585920 -0.531350 -1.717640
0.641637 -0.520206 -1.689533
0.652780 -0.520206 -1.685406
0.663923 -0.520206 -1.681077
0.719640 -0.509063 -1.653284
0.730783 -0.509063 -1.648192
-0.026963 -0.609353 -1.962069
-0.015820 -0.609353 -1.958112
0.039897 -0.598210 -1.929975
0.051040 -0.598210 -1.925888
0.062183 -0.598210 -1.921787
0.117900 -0.587066 -1.896000
0.129043 -0.587066 -1.895647
0.140187 -0.587066 -1.893420
0.151330 -0.587066 -1.890149
0.162473 -0.587066 -1.886342
0.218190 -0.575923 -1.858446
0.229333 -0.575923 -1.854259
0.240477 -0.575923 -1.850273
0.296193 -0.564780 -1.822710
0.307337 -0.564780 -1.818439
0.351910 -0.564780 -1.816898
0.363053 -0.564780 -1.822237
0.374197 -0.564780 -1.818067
0.385340 -0.564780 -1.813871
0.441057 -0.553636 -1.785648
0.452200 -0.553636 -1.781775
0.519060 -0.542493 -1.749600
0.530203 -0.542493 -1.745393
0.597063 -0.531350 -1.713470
0.608207 -0.531350 -1.709109
0.675067 -0.520206 -1.677040
0.686210 -0.520206 -1.672800
0.741927 -0.509063 -1.635499
0.753070 -0.497920 -1.599505
-0.004677 -0.609353 -1.953535
0.006467 -0.609353 -1.949349
0.017610 -0.609353 -1.945342
0.073327 -0.598210 -1.917665
0.084470 -0.598210 -1.913266
0.095613 -0.598210 -1.909202
0.173617 -0.587066 -1.882597
0.184760 -0.587066 -1.878452
0.195903 -0.587066 -1.874111
0.251620 -0.575923 -1.846420
0.262763 -0.575923 -1.842131
0.318480 -0.564780 -1.804329
0.396483 -0.564780 -1.809648
0.407627 -0.564780 -1.805398
0.463343 -0.553636 -1.777676
0.474487 -0.553636 -1.773257
0.485630 -0.553636 -1.769356
0.541347 -0.542493 -1.741441
0.552490 -0.542493 -1.736954
0.563633 -0.542493 -1.733191
0.619350 -0.531350 -1.705014
0.630493 -0.531350 -1.700904
0.641637 -0.531350 -1.696780
0.697353 -0.520206 -1.668611
0.708497 -0.520206 -1.665148
0.719640 -0.520206 -1.660894
0.764213 -0.497920 -1.595706
0.775357 -0.497920 -1.591243
-1.219300 -0.631640 -2.007134
-1.208157 -0.631640 -2.007134
-1.197013 -0.631640 -2.007134
-1.185870 -0.631640 -2.007134
-1.174727 -0.631640 -2.007134
-1.163583 -0.631640 -2.007134
-1.152440 -0.631640 -2.007134
-1.141297 -0.631640 -2.007134
-1.130153 -0.631640 -2.007134
-1.119010 -0.631640 -2.007134
-1.107867 -0.631640 -2.007134
-1.096723 -0.631640 -2.007134
-1.085580 -0.631640 -2.007134
-1.074437 -0.631640 -2.007134
-1.063293 -0.631640 -2.007134
-1.052150 -0.631640 -2.007134
-1.041007 -0.631640 -2.007134
-1.029863 -0.631640 -2.007134
-1.018720 -0.631640 -2.007134
-1.007577 -0.631640 -2.007134
-0.996433 -0.631640 -2.007134
-0.985290 -0.631640 -2.007134
-0.974147 -0.631640 -2.007134
-0.963003 -0.631640 -2.007134
-0.951860 -0.631640 -2.007134
-0.940717 -0.631640 -2.007134
-0.929573 -0.631640 -2.007134
-0.918430 -0.631640 -2.007134
-0.907287 -0.631640 -2.007134
-0.896143 -0.631640 -2.007134
-0.885000 -0.631640 -2.007134
-0.873857 -0.631640 -2.007134
-0.862713 -0.631640 -2.007134
-0.851570 -0.631640 -2.007134
-0.840427 -0.631640 -2.007134
-0.829283 -0.631640 -2.007134
-0.818140 -0.631640 -2.007134
-0.806997 -0.631640 -2.007134
-0.795853 -0.631640 -2.007134
-0.784710 -0.631640 -2.007134
-0.773567 -0.631640 -2.007134
-0.762423 -0.631640 -2.007134
-0.751280 -0.631640 -2.007134
-0.740137 -0.631640 -2.007134
-0.728993 -0.631640 -2.007134
-0.717850 -0.631640 -2.007134
-0.706707 -0.631640 -2.007134
-0.695563 -0.631640 -2.007134
-0.684420 -0.631640 -2.007134
-0.673277 -0.631640 -2.007134
-0.662133 -0.631640 -2.007134
-0.650990 -0.631640 -2.007134
-0.639847 -0.631640 -2.007134
-0.628703 -0.631640 -2.007134
-0.617560 -0.631640 -2.007134
-0.606417 -0.631640 -2.007134
-0.595273 -0.631640 -2.007134
-0.584130 -0.631640 -2.007134
-0.572987 -0.631640 -2.007134
-0.561843 -0.631640 -2.007134
-0.550700 -0.631640 -2.007134
-0.539557 -0.631640 -2.007134
-0.528413 -0.631640 -2.007134
-0.517270 -0.631640 -2.007134
-0.506127 -0.631640 -2.007134
-0.494983 -0.631640 -2.007134
-0.483840 -0.631640 -2.007134
-0.472697 -0.631640 -2.007134
-0.461553 -0.631640 -2.007134
-0.450410 -0.631640 -2.007134
-0.439267 -0.631640 -2.007134
-0.428123 -0.631640 -2.007134
-0.416980 -0.631640 -2.007134
-0.405837 -0.631640 -2.007134
-0.394693 -0.631640 -2.007134
-0.383550 -0.631640 -2.007134
-0.372407 -0.631640 -2.007134
-0.361263 -0.631640 -2.007134
-0.350120 -0.631640 -2.007134
-0.338977 -0.631640 -2.007134
-0.327833 -0.631640 -2.007134
-0.316690 -0.631640 -2.007134
-0.305547 -0.631640 -2.007134
-0.294403 -0.631640 -2.007134
-0.283260 -0.631640 -2.007134
-0.272117 -0.631640 -2.007134
-0.260973 -0.631640 -2.007134
-0.249830 -0.631640 -2.007134
-0.238687 -0.631640 -2.007134
-0.227543 -0.631640 -2.007134
-0.216400 -0.631640 -2.007134
-0.205257 -0.631640 -2.007134
-0.194113 -0.631640 -2.007134
-0.182970 -0.631640 -2.007134
-0.171827 -0.631640 -2.007134
-0.160683 -0.631640 -2.007134
-0.149540 -0.631640 -2.007134
-0.138397 -0.631640 -2.007134
-0.127253 -0.631640 -2.007134
-0.116110 -0.631640 -2.007134
-0.104967 -0.631640 -2.007134
-0.093823 -0.631640 -2.007134
-0.082680 -0.631640 -2.007134
-0.071537 -0.631640 -2.007134
-0.060393 -0.631640 -2.007134
-0.049250 -0.631640 -2.007134
-0.038107 -0.631640 -2.007134
-0.026963 -0.631640 -2.007134
0.028753 -0.609353 -1.941317
0.039897 -0.609353 -1.937276
0.051040 -0.609353 -1.933219
0.106757 -0.598210 -1.905129
0.117900 -0.598210 -1.901001
0.207047 -0.587066 -1.870263
0.218190 -0.587066 -1.866101
0.273907 -0.575923 -1.837609
0.285050 -0.575923 -1.833909
0.296193 -0.575923 -1.829752
0.329623 -0.564780 -1.800342
0.363053 -0.575923 -1.829191
0.418770 -0.564780 -1.801626
0.429913 -0.564780 -1.797336
0.441057 -0.564780 -1.792972
0.496773 -0.553636 -1.765227
0.507917 -0.553636 -1.761166
0.519060 -0.553636 -1.757158
0.574777 -0.542493 -1.728701
0.585920 -0.542493 -1.724558
0.652780 -0.531350 -1.692674
0.663923 -0.531350 -1.688490
0.730783 -0.520206 -1.655879
0.987080 -0.631640 -2.007134
0.998223 -0.631640 -2.007134
1.009367 -0.631640 -2.007134
1.020510 -0.631640 -2.007134
1.031653 -0.631640 -2.007134
1.042797 -0.631640 -2.007134
1.053940 -0.631640 -2.007134
1.065083 -0.631640 -2.007134
1.076227 -0.631640 -2.007134
1.087370 -0.631640 -2.007134
1.098513 -0.631640 -2.007134
1.109657 -0.631640 -2.007134
1.120800 -0.631640 -2.007134
1.131943 -0.631640 -2.007134
1.143087 -0.631640 -2.007134
1.154230 -0.631640 -2.007134
1.165373 -0.631640 -2.007134
1.176517 -0.631640 -2.007134
1.187660 -0.631640 -2.007134
1.198803 -0.631640 -2.007134
1.209947 -0.631640 -2.007134
1.221090 -0.631640 -2.007134
0.062183 -0.609353 -1.929143
0.073327 -0.609353 -1.924649
0.129043 -0.598210 -1.896789
0.140187 -0.598210 -1.892556
0.151330 -0.598210 -1.888467
0.229333 -0.587066 -1.861795
0.240477 -0.587066 -1.857753
0.251620 -0.587066 -1.853568
0.307337 -0.575923 -1.825504
0.318480 -0.575923 -1.816170
0.351910 -0.575923 -1.824009
0.374197 -0.575923 -1.825316
0.385340 -0.575923 -1.821020
0.396483 -0.575923 -1.816718
0.452200 -0.564780 -1.789072
0.463343 -0.564780 -1.785046
0.530203 -0.553636 -1.752689
0.541347 -0.553636 -1.748430
0.597063 -0.542493 -1.720700
0.608207 -0.542493 -1.716709
0.619350 -0.542493 -1.712268
0.675067 -0.531350 -1.684411
0.686210 -0.531350 -1.680224
0.697353 -0.531350 -1.676000
0.741927 -0.520206 -1.642883
0.753070 -0.509063 -1.607087
0.084470 -0.609353 -1.920610
0.095613 -0.609353 -1.916563
0.106757 -0.609353 -1.912511
0.162473 -0.598210 -1.884660
0.173617 -0.598210 -1.881477
0.184760 -0.598210 -1.878115
0.195903 -0.598210 -1.877437
0.207047 -0.598210 -1.876574
0.262763 -0.587066 -1.849296
0.273907 -0.587066 -1.845172
0.285050 -0.587066 -1.841140
0.329623 -0.575923 -1.807989
0.407627 -0.575923 -1.812494
0.418770 -0.575923 -1.808910
0.474487 -0.564780 -1.780655
0.485630 -0.564780 -1.776774
0.496773 -0.564780 -1.772289
0.552490 -0.553636 -1.744561
0.563633 -0.553636 -1.740482
0.574777 -0.553636 -1.736392
0.630493 -0.542493 -1.708185
0.641637 -0.542493 -1.704087
0.708497 -0.531350 -1.671735
0.719640 -0.531350 -1.667508
0.764213 -0.509063 -1.602675
0.775357 -0.509063 -1.598868
0.051040 -0.620496 -1.940503
0.062183 -0.620496 -1.936455
0.117900 -0.609353 -1.908451
0.129043 -0.609353 -1.904322
0.140187 -0.609353 -1.900121
0.218190 -0.598210 -1.872415
0.229333 -0.598210 -1.868807
0.240477 -0.598210 -1.864591
0.296193 -0.587066 -1.836744
0.307337 -0.587066 -1.832898
0.351910 -0.587066 -1.831067
0.363053 -0.587066 -1.836653
0.374197 -0.587066 -1.832390
0.429913 -0.575923 -1.804580
0.441057 -0.575923 -1.800240
0.452200 -0.575923 -1.796318
0.507917 -0.564780 -1.768252
0.519060 -0.564780 -1.764210
0.530203 -0.564780 -1.760214
0.585920 -0.553636 -1.732433
0.597063 -0.553636 -1.728182
0.652780 -0.542493 -1.699977
0.663923 -0.542493 -1.695851
0.675067 -0.542493 -1.691713
0.730783 -0.531350 -1.663229
0.073327 -0.620496 -1.931930
0.084470 -0.620496 -1.927908
0.095613 -0.620496 -1.923881
0.151330 -0.609353 -1.895901
0.162473 -0.609353 -1.891662
0.173617 -0.609353 -1.887405
0.251620 -0.598210 -1.860592
0.262763 -0.598210 -1.856406
0.318480 -0.587066 -1.819323
0.385340 -0.587066 -1.828119
0.396483 -0.587066 -1.824158
0.407627 -0.587066 -1.820373
0.463343 -0.575923 -1.792188
0.474487 -0.575923 -1.787994
0.541347 -0.564780 -1.756010
0.552490 -0.564780 -1.751474
0.608207 -0.553636 -1.723758
0.619350 -0.553636 -1.719879
0.630493 -0.553636 -1.715417
0.686210 -0.542493 -1.687559
0.697353 -0.542493 -1.683391
0.741927 -0.531350 -1.650109
0.753070 -0.520206 -1.613967
-1.208157 -0.642783 -1.989523
-1.197013 -0.642783 -1.989523
-1.185870 -0.642783 -1.989523
-1.174727 -0.642783 -1.989523
-1.163583 -0.642783 -1.989523
-1.152440 -0.642783 -1.989523
-1.141297 -0.642783 -1.989523
-1.130153 -0.642783 -1.989523
-1.119010 -0.642783 -1.989523
-1.107867 -0.642783 -1.989523
-1.096723 -0.642783 -1.989523
-1.085580 -0.642783 -1.989523
-1.074437 -0.642783 -1.989523
-1.063293 -0.642783 -1.989523
-1.052150 -0.642783 -1.989523
-1.041007 -0.642783 -1.989523
-1.029863 -0.642783 -1.989523
-1.018720 -0.642783 -1.989523
-1.007577 -0.642783 -1.989523
-0.996433 -0.642783 -1.989523
-0.985290 -0.642783 -1.989523
-0.974147 -0.642783 -1.989523
-0.963003 -0.642783 -1.989523
-0.951860 -0.642783 -1.989523
-0.940717 -0.642783 -1.989523
-0.929573 -0.642783 -1.989523
-0.918430 -0.642783 -1.989523
-0.907287 -0.642783 -1.989523
-0.896143 -0.642783 -1.989523
-0.885000 -0.642783 -1.989523
-0.873857 -0.642783 -1.989523
-0.862713 -0.642783 -1.989523
-0.851570 -0.642783 -1.989523
-0.840427 -0.642783 -1.989523
-0.829283 -0.642783 -1.989523
-0.818140 -0.642783 -1.989523
-0.806997 -0.642783 -1.989523
-0.795853 -0.642783 -1.989523
-0.784710 -0.642783 -1.989523
-0.773567 -0.642783 -1.989523
-0.762423 -0.642783 -1.989523
-0.751280 -0.642783 -1.989523
-0.740137 -0.642783 -1.989523
-0.728993 -0.642783 -1.989523
-0.717850 -0.642783 -1.989523
-0.706707 -0.642783 -1.989523
-0.695563 -0.642783 -1.989523
-0.684420 -0.642783 -1.989523
-0.673277 -0.642783 -1.989523
-0.662133 -0.642783 -1.989523
-0.650990 -0.642783 -1.989523
-0.639847 -0.642783 -1.989523
-0.628703 -0.642783 -1.989523
-0.617560 -0.642783 -1.989523
-0.606417 -0.642783 -1.989523
-0.595273 -0.642783 -1.989523
-0.584130 -0.642783 -1.989523
-0.572987 -0.642783 -1.989523
-0.561843 -0.642783 -1.989523
-0.550700 -0.642783 -1.989523
-0.539557 -0.642783 -1.989523
-0.528413 -0.642783 -1.989523
-0.517270 -0.642783 -1.989523
-0.506127 -0.642783 -1.989523
-0.494983 -0.642783 -1.989523
-0.483840 -0.642783 -1.989523
-0.472697 -0.642783 -1.989523
-0.461553 -0.642783 -1.989523
-0.450410 -0.642783 -1.989523
-0.439267 -0.642783 -1.989523
-0.428123 -0.642783 -1.989523
-0.416980 -0.642783 -1.989523
-0.405837 -0.642783 -1.989523
-0.394693 -0.642783 -1.989523
-0.383550 -0.642783 -1.989523
-0.372407 -0.642783 -1.989523
-0.361263 -0.642783 -1.989523
-0.350120 -0.642783 -1.989523
-0.338977 -0.642783 -1.989523
-0.327833 -0.642783 -1.989523
-0.316690 -0.642783 -1.989523
-0.305547 -0.642783 -1.989523
-0.294403 -0.642783 -1.989523
-0.283260 -0.642783 -1.989523
-0.272117 -0.642783 -1.989523
-0.260973 -0.642783 -1.989523
-0.249830 -0.642783 -1.989523
-0.238687 -0.642783 -1.989523
-0.227543 -0.642783 -1.989523
-0.216400 -0.642783 -1.989523
-0.205257 -0.642783 -1.989523
-0.194113 -0.642783 -1.989523
-0.182970 -0.642783 -1.989523
-0.171827 -0.642783 -1.989523
-0.160683 -0.642783 -1.989523
-0.149540 -0.642783 -1.989523
-0.138397 -0.642783 -1.989523
-0.127253 -0.642783 -1.989523
-0.116110 -0.642783 -1.989523
-0.104967 -0.642783 -1.989523
-0.093823 -0.642783 -1.989523
-0.082680 -0.642783 -1.989523
-0.071537 -0.642783 -1.989523
-0.060393 -0.642783 -1.989523
-0.049250 -0.642783 -1.989523
-0.038107 -0.642783 -1.989523
-0.026963 -0.642783 -1.989523
-0.015820 -0.642783 -1.989523
-0.004677 -0.642783 -1.989523
0.006467 -0.642783 -1.989523
0.017610 -0.642783 -1.989523
0.028753 -0.642783 -1.989523
0.039897 -0.642783 -1.989523
0.051040 -0.642783 -1.989523
0.106757 -0.620496 -1.919847
0.117900 -0.620496 -1.915148
0.129043 -0.620496 -1.911025
0.184760 -0.609353 -1.883135
0.195903 -0.609353 -1.879033
0.273907 -0.598210 -1.852787
0.285050 -0.598210 -1.848315
0.296193 -0.598210 -1.843974
0.329623 -0.587066 -1.815074
0.363053 -0.598210 -1.843907
0.418770 -0.587066 -1.816075
0.429913 -0.587066 -1.811768
0.441057 -0.587066 -1.807804
0.485630 -0.575923 -1.783618
0.496773 -0.575923 -1.779697
0.507917 -0.575923 -1.775665
0.563633 -0.564780 -1.747664
0.574777 -0.564780 -1.743549
0.585920 -0.564780 -1.739527
0.641637 -0.553636 -1.711345
0.652780 -0.553636 -1.707260
0.708497 -0.542493 -1.679208
0.719640 -0.542493 -1.675010
0.764213 -0.520206 -1.610535
0.775357 -0.520206 -1.606138
0.975937 -0.642783 -1.989523
0.987080 -0.642783 -1.989523
0.998223 -0.642783 -1.989523
1.009367 -0.642783 -1.989523
1.020510 -0.642783 -1.989523
1.031653 -0.642783 -1.989523
1.042797 -0.642783 -1.989523
1.053940 -0.642783 -1.989523
1.065083 -0.642783 -1.989523
1.076227 -0.642783 -1.989523
1.087370 -0.642783 -1.989523
1.098513 -0.642783 -1.989523
1.109657 -0.642783 -1.989523
1.120800 -0.642783 -1.989523
1.131943 -0.642783 -1.989523
1.143087 -0.642783 -1.989523
1.154230 -0.642783 -1.989523
1.165373 -0.642783 -1.989523
1.176517 -0.642783 -1.989523
1.187660 -0.642783 -1.989523
1.198803 -0.642783 -1.989523
1.209947 -0.642783 -1.989523
0.140187 -0.620496 -1.906901
0.151330 -0.620496 -1.902882
0.207047 -0.609353 -1.875259
0.218190 -0.609353 -1.871000
0.229333 -0.609353 -1.866876
0.307337 -0.598210 -1.840144
0.351910 -0.598210 -1.838654
0.374197 -0.598210 -1.839843
0.385340 -0.598210 -1.835754
0.396483 -0.598210 -1.831640
0.452200 -0.587066 -1.803517
0.463343 -0.587066 -1.799620
0.519060 -0.575923 -1.771259
0.530203 -0.575923 -1.767179
0.541347 -0.575923 -1.763251
0.597063 -0.564780 -1.735467
0.608207 -0.564780 -1.731349
0.663923 -0.553636 -1.703162
0.675067 -0.553636 -1.699049
0.686210 -0.553636 -1.694913
0.730783 -0.542493 -1.668428
0.106757 -0.631640 -1.926666
0.117900 -0.631640 -1.922560
0.162473 -0.620496 -1.898769
0.173617 -0.620496 -1.894691
0.184760 -0.620496 -1.890766
0.240477 -0.609353 -1.862728
0.251620 -0.609353 -1.861658
0.262763 -0.609353 -1.860712
0.273907 -0.609353 -1.858622
0.285050 -0.609353 -1.855566
0.318480 -0.598210 -1.826334
0.329623 -0.598210 -1.822108
0.407627 -0.598210 -1.827461
0.418770 -0.598210 -1.823187
0.474487 -0.587066 -1.795277
0.485630 -0.587066 -1.790925
0.496773 -0.587066 -1.787052
0.552490 -0.575923 -1.758986
0.563633 -0.575923 -1.755204
0.619350 -0.564780 -1.726823
0.630493 -0.564780 -1.722951
0.697353 -0.553636 -1.690782
0.708497 -0.553636 -1.686627
0.741927 -0.542493 -1.657491
0.753070 -0.531350 -1.621734
0.764213 -0.531350 -1.617387
0.129043 -0.631640 -1.918434
0.140187 -0.631640 -1.914292
0.195903 -0.620496 -1.886501
0.207047 -0.620496 -1.882417
0.218190 -0.620496 -1.878312
0.296193 -0.609353 -1.851390
0.307337 -0.609353 -1.847334
0.351910 -0.609353 -1.845848
0.363053 -0.609353 -1.851424
0.374197 -0.609353 -1.847205
0.429913 -0.598210 -1.819139
0.441057 -0.598210 -1.814918
0.452200 -0.598210 -1.810670
0.507917 -0.587066 -1.783020
0.519060 -0.587066 -1.778640
0.574777 -0.575923 -1.750748
0.585920 -0.575923 -1.746607
0.641637 -0.564780 -1.718583
0.652780 -0.564780 -1.714495
0.663923 -0.564780 -1.710422
0.719640 -0.553636 -1.682458
0.730783 -0.553636 -1.677795
0.775357 -0.531350 -1.613022
-1.197013 -0.653926 -1.972968
-1.185870 -0.653926 -1.972968
-1.174727 -0.653926 -1.972968
-1.163583 -0.653926 -1.972968
-1.152440 -0.653926 -1.972968
-1.141297 -0.653926 -1.972968
-1.130153 -0.653926 -1.972968
-1.119010 -0.653926 -1.972968
-1.107867 -0.653926 -1.972968
-1.096723 -0.653926 -1.972968
-1.085580 -0.653926 -1.972968
-1.074437 -0.653926 -1.972968
-1.063293 -0.653926 -1.972968
-1.052150 -0.653926 -1.972968
-1.041007 -0.653926 -1.972968
-1.029863 -0.653926 -1.972968
-1.018720 -0.653926 -1.972968
-1.007577 -0.653926 -1.972968
-0.996433 -0.653926 -1.972968
-0.985290 -0.653926 -1.972968
-0.974147 -0.653926 -1.972968
-0.963003 -0.653926 -1.972968
-0.951860 -0.653926 -1.972968
-0.940717 -0.653926 -1.972968
-0.929573 -0.653926 -1.972968
-0.918430 -0.653926 -1.972968
-0.907287 -0.653926 -1.972968
-0.896143 -0.653926 -1.972968
-0.885000 -0.653926 -1.972968
-0.873857 -0.653926 -1.972968
-0.862713 -0.653926 -1.972968
-0.851570 -0.653926 -1.972968
-0.840427 -0.653926 -1.972968
-0.829283 -0.653926 -1.972968
-0.818140 -0.653926 -1.972968
-0.806997 -0.653926 -1.972968
-0.795853 -0.653926 -1.972968
-0.784710 -0.653926 -1.972968
-0.773567 -0.653926 -1.972968
-0.762423 -0.653926 -1.972968
-0.751280 -0.653926 -1.972968
-0.740137 -0.653926 -1.972968
-0.728993 -0.653926 -1.972968
-0.717850 -0.653926 -1.972968
-0.706707 -0.653926 -1.972968
-0.695563 -0.653926 -1.972968
-0.684420 -0.653926 -1.972968
-0.673277 -0.653926 -1.972968
-0.662133 -0.653926 -1.972968
-0.650990 -0.653926 -1.972968
-0.639847 -0.653926 -1.972968
-0.628703 -0.653926 -1.972968
-0.617560 -0.653926 -1.972968
-0.606417 -0.653926 -1.972968
-0.595273 -0.653926 -1.972968
-0.584130 -0.653926 -1.972968
-0.572987 -0.653926 -1.972968
-0.561843 -0.653926 -1.972968
-0.550700 -0.653926 -1.972968
-0.539557 -0.653926 -1.972968
-0.528413 -0.653926 -1.972968
-0.517270 -0.653926 -1.972968
-0.506127 -0.653926 -1.972968
-0.494983 -0.653926 -1.972968
-0.483840 -0.653926 -1.972968
-0.472697 -0.653926 -1.972968
-0.461553 -0.653926 -1.972968
-0.450410 -0.653926 -1.972968
-0.439267 -0.653926 -1.972968
-0.428123 -0.653926 -1.972968
-0.416980 -0.653926 -1.972968
-0.405837 -0.653926 -1.972968
-0.394693 -0.653926 -1.972968
-0.383550 -0.653926 -1.972968
-0.372407 -0.653926 -1.972968
-0.361263 -0.653926 -1.972968
-0.350120 -0.653926 -1.972968
-0.338977 -0.653926 -1.972968
-0.327833 -0.653926 -1.972968
-0.316690 -0.653926 -1.972968
-0.305547 -0.653926 -1.972968
-0.294403 -0.653926 -1.972968
-0.283260 -0.653926 -1.972968
-0.272117 -0.653926 -1.972968
-0.260973 -0.653926 -1.972968
-0.249830 -0.653926 -1.972968
-0.238687 -0.653926 -1.972968
-0.227543 -0.653926 -1.972968
-0.216400 -0.653926 -1.972968
-0.205257 -0.653926 -1.972968
-0.194113 -0.653926 -1.972968
-0.182970 -0.653926 -1.972968
-0.171827 -0.653926 -1.972968
-0.160683 -0.653926 -1.972968
-0.149540 -0.653926 -1.972968
-0.138397 -0.653926 -1.972968
-0.127253 -0.653926 -1.972968
-0.116110 -0.653926 -1.972968
-0.104967 -0.653926 -1.972968
-0.093823 -0.653926 -1.972968
-0.082680 -0.653926 -1.972968
-0.071537 -0.653926 -1.972968
-0.060393 -0.653926 -1.972968
-0.049250 -0.653926 -1.972968
-0.038107 -0.653926 -1.972968
-0.026963 -0.653926 -1.972968
-0.015820 -0.653926 -1.972968
-0.004677 -0.653926 -1.972968
0.006467 -0.653926 -1.972968
0.017610 -0.653926 -1.972968
0.028753 -0.653926 -1.972968
0.039897 -0.653926 -1.972968
0.051040 -0.653926 -1.972968
0.062183 -0.653926 -1.972968
0.073327 -0.653926 -1.972968
0.084470 -0.653926 -1.972968
0.095613 -0.653926 -1.972968
0.106757 -0.653926 -1.972968
0.151330 -0.631640 -1.910206
0.162473 -0.631640 -1.906155
0.173617 -0.631640 -1.902097
0.229333 -0.620496 -1.874197
0.240477 -0.620496 -1.870068
0.318480 -0.609353 -1.839448
0.385340 -0.609353 -1.842979
0.396483 -0.609353 -1.838743
0.407627 -0.609353 -1.834500
0.463343 -0.598210 -1.806824
0.474487 -0.598210 -1.802505
0.530203 -0.587066 -1.774643
0.541347 -0.587066 -1.770680
0.552490 -0.587066 -1.766274
0.597063 -0.575923 -1.742638
0.608207 -0.575923 -1.738500
0.619350 -0.575923 -1.734497
0.675067 -0.564780 -1.706336
0.686210 -0.564780 -1.702090
0.964793 -0.653926 -1.972968
0.975937 -0.653926 -1.972968
0.987080 -0.653926 -1.972968
0.998223 -0.653926 -1.972968
1.009367 -0.653926 -1.972968
1.020510 -0.653926 -1.972968
1.031653 -0.653926 -1.972968
1.042797 -0.653926 -1.972968
1.053940 -0.653926 -1.972968
1.065083 -0.653926 -1.972968
1.076227 -0.653926 -1.972968
1.087370 -0.653926 -1.972968
1.098513 -0.653926 -1.972968
1.109657 -0.653926 -1.972968
1.120800 -0.653926 -1.972968
1.131943 -0.653926 -1.972968
1.143087 -0.653926 -1.972968
1.154230 -0.653926 -1.972968
1.165373 -0.653926 -1.972968
1.176517 -0.653926 -1.972968
1.187660 -0.653926 -1.972968
1.198803 -0.653926 -1.972968
0.184760 -0.631640 -1.898032
0.195903 -0.631640 -1.893960
0.207047 -0.631640 -1.889869
0.251620 -0.620496 -1.865704
0.262763 -0.620496 -1.861812
0.273907 -0.620496 -1.857669
0.329623 -0.609353 -1.829540
0.418770 -0.609353 -1.830329
0.429913 -0.609353 -1.826172
0.485630 -0.598210 -1.798177
0.496773 -0.598210 -1.794356
0.507917 -0.598210 -1.790320
0.563633 -0.587066 -1.761962
0.574777 -0.587066 -1.758254
0.630493 -0.575923 -1.729989
0.641637 -0.575923 -1.726022
0.697353 -0.564780 -1.698123
0.708497 -0.564780 -1.693994
0.719640 -0.564780 -1.689822
0.741927 -0.553636 -1.664718
0.753070 -0.542493 -1.628503
0.764213 -0.542493 -1.624707
0.162473 -0.642783 -1.913434
0.218190 -0.631640 -1.885594
0.229333 -0.631640 -1.881301
0.285050 -0.620496 -1.853518
0.296193 -0.620496 -1.849666
0.351910 -0.620496 -1.853178
0.363053 -0.620496 -1.849521
0.441057 -0.609353 -1.822059
0.452200 -0.609353 -1.818261
0.463343 -0.609353 -1.813975
0.519060 -0.598210 -1.785964
0.530203 -0.598210 -1.782068
0.585920 -0.587066 -1.753815
0.597063 -0.587066 -1.750000
0.652780 -0.575923 -1.721781
0.663923 -0.575923 -1.717634
0.675067 -0.575923 -1.713574
0.730783 -0.564780 -1.684447
0.775357 -0.542493 -1.620793
0.173617 -0.642783 -1.909265
0.184760 -0.642783 -1.905078
0.240477 -0.631640 -1.876989
0.251620 -0.631640 -1.873034
0.262763 -0.631640 -1.869132
0.307337 -0.620496 -1.845201
0.318480 -0.620496 -1.841016
0.329623 -0.620496 -1.836834
0.374197 -0.620496 -1.845158
0.385340 -0.620496 -1.844842
0.396483 -0.620496 -1.844584
0.407627 -0.620496 -1.841000
0.418770 -0.620496 -1.837979
0.474487 -0.609353 -1.809679
0.485630 -0.609353 -1.805933
0.541347 -0.598210 -1.777587
0.552490 -0.598210 -1.773668
0.563633 -0.598210 -1.769516
0.608207 -0.587066 -1.745696
0.619350 -0.587066 -1.741534
0.630493 -0.587066 -1.737626
0.686210 -0.575923 -1.709499
0.697353 -0.575923 -1.705238
0.741927 -0.564780 -1.672199
0.195903 -0.642783 -1.900875
0.207047 -0.642783 -1.896650
0.218190 -0.642783 -1.892565
0.273907 -0.631640 -1.864758
0.285050 -0.631640 -1.860592
0.351910 -0.631640 -1.860426
0.429913 -0.620496 -1.833837
0.441057 -0.620496 -1.829591
0.452200 -0.620496 -1.825337
0.496773 -0.609353 -1.801612
0.507917 -0.609353 -1.797562
0.519060 -0.609353 -1.793232
0.574777 -0.598210 -1.765368
0.585920 -0.598210 -1.761287
0.641637 -0.587066 -1.733135
0.652780 -0.587066 -1.729094
0.708497 -0.575923 -1.701311
0.719640 -0.575923 -1.697080
0.753070 -0.553636 -1.636154
0.764213 -0.553636 -1.631867
-1.185870 -0.665070 -1.955950
-1.174727 -0.665070 -1.955950
-1.163583 -0.665070 -1.955950
-1.152440 -0.665070 -1.955950
-1.141297 -0.665070 -1.955950
-1.130153 -0.665070 -1.955950
-1.119010 -0.665070 -1.955950
-1.107867 -0.665070 -1.955950
-1.096723 -0.665070 -1.955950
-1.085580 -0.665070 -1.955950
-1.074437 -0.665070 -1.955950
-1.063293 -0.665070 -1.955950
-1.052150 -0.665070 -1.955950
-1.041007 -0.665070 -1.955950
-1.029863 -0.665070 -1.955950
-1.018720 -0.665070 -1.955950
-1.007577 -0.665070 -1.955950
-0.996433 -0.665070 -1.955950
-0.985290 -0.665070 -1.955950
-0.974147 -0.665070 -1.955950
-0.963003 -0.665070 -1.955950
-0.951860 -0.665070 -1.955950
-0.940717 -0.665070 -1.955950
-0.929573 -0.665070 -1.955950
-0.918430 -0.665070 -1.955950
-0.907287 -0.665070 -1.955950
-0.896143 -0.665070 -1.955950
-0.885000 -0.665070 -1.955950
-0.873857 -0.665070 -1.955950
-0.862713 -0.665070 -1.955950
-0.851570 -0.665070 -1.955950
-0.840427 -0.665070 -1.955950
-0.829283 -0.665070 -1.955950
-0.818140 -0.665070 -1.955950
-0.806997 -0.665070 -1.955950
-0.795853 -0.665070 -1.955950
-0.784710 -0.665070 -1.955950
-0.773567 -0.665070 -1.955950
-0.762423 -0.665070 -1.955950
-0.751280 -0.665070 -1.955950
-0.740137 -0.665070 -1.955950
-0.728993 -0.665070 -1.955950
-0.717850 -0.665070 -1.955950
-0.706707 -0.665070 -1.955950
-0.695563 -0.665070 -1.955950
-0.684420 -0.665070 -1.955950
-0.673277 -0.665070 -1.955950
-0.662133 -0.665070 -1.955950
-0.650990 -0.665070 -1.955950
-0.639847 -0.665070 -1.955950
-0.628703 -0.665070 -1.955950
-0.617560 -0.665070 -1.955950
-0.606417 -0.665070 -1.955950
-0.595273 -0.665070 -1.955950
-0.584130 -0.665070 -1.955950
-0.572987 -0.665070 -1.955950
-0.561843 -0.665070 -1.955950
-0.550700 -0.665070 -1.955950
-0.539557 -0.665070 -1.955950
-0.528413 -0.665070 -1.955950
-0.517270 -0.665070 -1.955950
-0.506127 -0.665070 -1.955950
-0.494983 -0.665070 -1.955950
-0.483840 -0.665070 -1.955950
-0.472697 -0.665070 -1.955950
-0.461553 -0.665070 -1.955950
-0.450410 -0.665070 -1.955950
-0.439267 -0.665070 -1.955950
-0.428123 -0.665070 -1.955950
-0.416980 -0.665070 -1.955950
-0.405837 -0.665070 -1.955950
-0.394693 -0.665070 -1.955950
-0.383550 -0.665070 -1.955950
-0.372407 -0.665070 -1.955950
-0.361263 -0.665070 -1.955950
-0.350120 -0.665070 -1.955950
-0.338977 -0.665070 -1.955950
-0.327833 -0.665070 -1.955950
-0.316690 -0.665070 -1.955950
-0.305547 -0.665070 -1.955950
-0.294403 -0.665070 -1.955950
