ply
format ascii 1.0
element vertex 1672
property float x
property float y
property float z
end_header
0.636065 0.688845 -1.523406
0.753070 0.672130 -1.491254
-1.202585 0.922855 -2.053062
-1.068865 0.906140 -2.014000
-0.951860 0.889425 -1.982074
-0.935145 0.889425 -1.975302
-0.818140 0.872710 -1.942939
-0.684420 0.855995 -1.904190
-0.400265 0.805850 -1.791484
-0.283260 0.789135 -1.758980
-0.266545 0.789135 -1.752556
-0.149540 0.772420 -1.720808
-0.015820 0.755705 -1.681560
0.117900 0.738990 -1.643229
0.234905 0.722275 -1.609930
0.251620 0.722275 -1.604296
0.368625 0.705560 -1.571612
0.602635 0.688845 -1.535405
0.619350 0.688845 -1.530155
0.736355 0.672130 -1.497062
0.870075 0.655415 -1.458592
-1.236015 0.922855 -2.065453
-1.219300 0.922855 -2.059161
-1.102295 0.906140 -2.026628
-1.085580 0.906140 -2.020694
-0.968575 0.889425 -1.988173
-0.834855 0.872710 -1.949253
-0.701135 0.855995 -1.910756
-0.584130 0.839280 -1.878371
-0.416980 0.805850 -1.797708
-0.299975 0.789135 -1.765344
-0.166255 0.772420 -1.726696
-0.032535 0.755705 -1.688092
0.101185 0.738990 -1.649607
0.218190 0.722275 -1.616573
0.351910 0.705560 -1.577904
0.485630 0.688845 -1.539039
0.585920 0.688845 -1.541978
0.719640 0.672130 -1.503651
0.853360 0.655415 -1.464552
-1.252730 0.922855 -2.071900
-1.119010 0.906140 -2.032944
-0.985290 0.889425 -1.994468
-0.868285 0.872710 -1.961764
-0.851570 0.872710 -1.955527
-0.734565 0.855995 -1.922685
-0.717850 0.855995 -1.917278
-0.600845 0.839280 -1.884215
-0.450410 0.805850 -1.810812
-0.433695 0.805850 -1.804835
-0.316690 0.789135 -1.771650
-0.182970 0.772420 -1.732908
-0.049250 0.755705 -1.694478
0.084470 0.738990 -1.655215
0.201475 0.722275 -1.623076
0.335195 0.705560 -1.584067
0.468915 0.688845 -1.545786
0.552490 0.672130 -1.505104
0.702925 0.672130 -1.509879
0.836645 0.655415 -1.471240
-1.152440 0.906140 -2.045112
-1.135725 0.906140 -2.039213
-1.018720 0.889425 -2.006624
-1.002005 0.889425 -2.000643
-0.885000 0.872710 -1.967962
-0.751280 0.855995 -1.929035
-0.617560 0.839280 -1.890879
-0.517270 0.805850 -1.815627
-0.500555 0.805850 -1.815113
-0.467125 0.805850 -1.816740
-0.333405 0.789135 -1.777900
-0.199685 0.772420 -1.739521
-0.065965 0.755705 -1.700152
0.051040 0.738990 -1.668342
0.067755 0.738990 -1.662179
0.184760 0.722275 -1.629589
0.318480 0.705560 -1.590089
0.452200 0.688845 -1.551948
0.535775 0.672130 -1.511430
0.686210 0.672130 -1.515417
0.819930 0.655415 -1.477094
-1.169155 0.906140 -2.051531
-1.035435 0.889425 -2.012571
-0.901715 0.872710 -1.974123
-0.767995 0.855995 -1.935434
-0.650990 0.839280 -1.903016
-0.634275 0.839280 -1.896399
-0.533985 0.805850 -1.821953
-0.483840 0.805850 -1.822623
-0.350120 0.789135 -1.784095
-0.233115 0.772420 -1.751331
-0.216400 0.772420 -1.745791
-0.099395 0.755705 -1.712702
-0.082680 0.755705 -1.707007
0.034325 0.738990 -1.674292
0.168045 0.722275 -1.635141
0.301765 0.705560 -1.596811
0.435485 0.688845 -1.558176
0.519060 0.672130 -1.518037
0.669495 0.672130 -1.522313
0.803215 0.655415 -1.483563
-1.202585 0.906140 -2.063820
-1.185870 0.906140 -2.057737
-1.068865 0.889425 -2.025424
-1.052150 0.889425 -2.018694
-0.935145 0.872710 -1.986339
-0.918430 0.872710 -1.980249
-0.801425 0.855995 -1.948109
-0.784710 0.855995 -1.941792
-0.667705 0.839280 -1.909586
-0.550700 0.805850 -1.827737
-0.383550 0.789135 -1.796327
-0.366835 0.789135 -1.790237
-0.249830 0.772420 -1.757698
-0.116110 0.755705 -1.719479
0.017610 0.738990 -1.680176
0.151330 0.722275 -1.641614
0.285050 0.705560 -1.602778
0.418770 0.688845 -1.564260
0.502345 0.672130 -1.529991
0.652780 0.672130 -1.528186
0.786500 0.655415 -1.489912
-1.219300 0.906140 -2.069859
-1.085580 0.889425 -2.031389
-0.951860 0.872710 -1.992704
-0.818140 0.855995 -1.954387
-0.684420 0.839280 -1.915093
-0.400265 0.789135 -1.803600
-0.266545 0.772420 -1.764069
-0.132825 0.755705 -1.725480
0.000895 0.738990 -1.686704
0.134615 0.722275 -1.648026
0.268335 0.705560 -1.609284
0.402055 0.688845 -1.570271
0.636065 0.672130 -1.534395
0.769785 0.655415 -1.495768
-1.236015 0.906140 -2.076138
-1.102295 0.889425 -2.037493
-0.968575 0.872710 -1.998711
-0.851570 0.855995 -1.966637
-0.834855 0.855995 -1.960628
-0.717850 0.839280 -1.927879
-0.701135 0.839280 -1.921434
-0.584130 0.822565 -1.888551
-0.416980 0.789135 -1.809583
-0.283260 0.772420 -1.770382
-0.149540 0.755705 -1.731596
-0.015820 0.738990 -1.693112
0.117900 0.722275 -1.654379
0.251620 0.705560 -1.614970
0.385340 0.688845 -1.576214
0.619350 0.672130 -1.541011
0.753070 0.655415 -1.501533
0.886790 0.638700 -1.463357
-1.269445 0.906140 -2.088815
-1.252730 0.906140 -2.082497
-1.135725 0.889425 -2.050143
-1.119010 0.889425 -2.044022
-1.002005 0.872710 -2.011465
-0.985290 0.872710 -2.005514
-0.868285 0.855995 -1.972638
-0.734565 0.839280 -1.934152
-0.600845 0.822565 -1.895219
-0.433695 0.789135 -1.815518
-0.299975 0.772420 -1.776639
-0.166255 0.755705 -1.738217
-0.032535 0.738990 -1.698795
0.101185 0.722275 -1.660674
0.218190 0.705560 -1.628114
0.234905 0.705560 -1.621502
0.351910 0.688845 -1.589071
0.368625 0.688845 -1.583127
0.485630 0.672130 -1.549806
0.602635 0.672130 -1.546720
0.736355 0.655415 -1.508684
0.870075 0.638700 -1.469688
-1.152440 0.889425 -2.056301
-1.018720 0.872710 -2.017384
-0.885000 0.855995 -1.979124
-0.751280 0.839280 -1.940379
-0.617560 0.822565 -1.901815
-0.517270 0.789135 -1.826537
-0.500555 0.789135 -1.826772
-0.467125 0.789135 -1.828460
-0.450410 0.789135 -1.821406
-0.333405 0.772420 -1.788989
-0.316690 0.772420 -1.782842
-0.199685 0.755705 -1.750214
-0.182970 0.755705 -1.744652
-0.065965 0.738990 -1.711557
-0.049250 0.738990 -1.705704
0.067755 0.722275 -1.672897
0.084470 0.722275 -1.666913
0.201475 0.705560 -1.634551
0.335195 0.688845 -1.594915
0.468915 0.672130 -1.556009
0.552490 0.655415 -1.516382
0.585920 0.672130 -1.552599
0.719640 0.655415 -1.514264
0.853360 0.638700 -1.475479
-1.185870 0.889425 -2.068810
-1.169155 0.889425 -2.062383
-1.052150 0.872710 -2.030005
-1.035435 0.872710 -2.023440
-0.918430 0.855995 -1.991277
-0.901715 0.855995 -1.985219
-0.784710 0.839280 -1.952655
-0.767995 0.839280 -1.946546
-0.650990 0.822565 -1.913781
-0.634275 0.822565 -1.907345
-0.533985 0.789135 -1.833477
-0.483840 0.789135 -1.834251
-0.350120 0.772420 -1.795085
-0.216400 0.755705 -1.756415
-0.082680 0.738990 -1.718149
0.051040 0.722275 -1.678790
0.184760 0.705560 -1.639986
0.318480 0.688845 -1.601446
0.452200 0.672130 -1.562258
0.535775 0.655415 -1.522910
0.702925 0.655415 -1.520350
0.836645 0.638700 -1.481250
-1.202585 0.889425 -2.074674
-1.068865 0.872710 -2.036152
-0.935145 0.855995 -1.997302
-0.801425 0.839280 -1.958705
-0.667705 0.822565 -1.920272
-0.550700 0.789135 -1.839175
-0.366835 0.772420 -1.801204
-0.233115 0.755705 -1.762794
-0.099395 0.738990 -1.724256
0.034325 0.722275 -1.685306
0.168045 0.705560 -1.646432
0.301765 0.688845 -1.607465
0.435485 0.672130 -1.568970
0.519060 0.655415 -1.528633
0.686210 0.655415 -1.526618
0.819930 0.638700 -1.488436
-1.236015 0.889425 -2.087344
-1.219300 0.889425 -2.081359
-1.102295 0.872710 -2.048668
-1.085580 0.872710 -2.042434
-0.968575 0.855995 -2.009815
-0.951860 0.855995 -2.003509
-0.834855 0.839280 -1.970738
-0.818140 0.839280 -1.964701
-0.701135 0.822565 -1.932005
-0.684420 0.822565 -1.926714
-0.400265 0.772420 -1.814296
-0.383550 0.772420 -1.808354
-0.249830 0.755705 -1.769114
-0.116110 0.738990 -1.730282
0.017610 0.722275 -1.691747
0.151330 0.705560 -1.652817
0.285050 0.688845 -1.614264
0.418770 0.672130 -1.575476
0.652780 0.655415 -1.538768
0.669495 0.655415 -1.533120
0.786500 0.638700 -1.500269
0.803215 0.638700 -1.494458
-1.252730 0.889425 -2.093238
-1.119010 0.872710 -2.054854
-0.985290 0.855995 -2.016281
-0.851570 0.839280 -1.977524
-0.717850 0.822565 -1.938346
-0.584130 0.805850 -1.899489
-0.416980 0.772420 -1.820188
-0.283260 0.755705 -1.781587
-0.266545 0.755705 -1.775378
-0.149540 0.738990 -1.742392
-0.132825 0.738990 -1.736912
0.000895 0.722275 -1.697438
0.134615 0.705560 -1.659145
0.268335 0.688845 -1.620096
0.402055 0.672130 -1.581383
0.502345 0.655415 -1.541585
0.636065 0.655415 -1.545205
0.769785 0.638700 -1.506981
-1.269445 0.889425 -2.100008
-1.152440 0.872710 -2.067091
-1.135725 0.872710 -2.060995
-1.018720 0.855995 -2.028240
-1.002005 0.855995 -2.022171
-0.868285 0.839280 -1.983356
-0.734565 0.822565 -1.944676
-0.600845 0.805850 -1.906074
-0.433695 0.772420 -1.826793
-0.299975 0.755705 -1.787740
-0.166255 0.738990 -1.748685
-0.032535 0.722275 -1.709981
-0.015820 0.722275 -1.704392
0.101185 0.705560 -1.671501
0.117900 0.705560 -1.665415
0.251620 0.688845 -1.626423
0.385340 0.672130 -1.587508
0.619350 0.655415 -1.551696
0.753070 0.638700 -1.513096
0.886790 0.621985 -1.473900
-1.169155 0.872710 -2.073141
-1.035435 0.855995 -2.034602
-0.901715 0.839280 -1.995892
-0.885000 0.839280 -1.990122
-0.767995 0.822565 -1.957218
-0.751280 0.822565 -1.950967
-0.634275 0.805850 -1.918075
-0.617560 0.805850 -1.912614
-0.517270 0.772420 -1.837985
-0.500555 0.772420 -1.837661
-0.467125 0.772420 -1.838798
-0.450410 0.772420 -1.833045
-0.316690 0.755705 -1.793843
-0.182970 0.738990 -1.755132
-0.049250 0.722275 -1.716818
0.084470 0.705560 -1.677790
0.218190 0.688845 -1.639452
0.234905 0.688845 -1.633024
0.351910 0.672130 -1.599983
0.368625 0.672130 -1.594276
0.602635 0.655415 -1.558101
0.736355 0.638700 -1.518636
0.870075 0.621985 -1.479839
-1.202585 0.872710 -2.085683
-1.185870 0.872710 -2.079384
-1.068865 0.855995 -2.047180
-1.052150 0.855995 -2.040916
-0.918430 0.839280 -2.002182
-0.784710 0.822565 -1.963432
-0.650990 0.805850 -1.924407
-0.533985 0.772420 -1.843646
-0.483840 0.772420 -1.845704
-0.350120 0.755705 -1.807125
-0.333405 0.755705 -1.799894
-0.199685 0.738990 -1.761518
-0.065965 0.722275 -1.722789
0.067755 0.705560 -1.683898
0.201475 0.688845 -1.645424
0.335195 0.672130 -1.606740
0.468915 0.655415 -1.567408
0.485630 0.655415 -1.561318
0.552490 0.638700 -1.527622
0.585920 0.655415 -1.563976
0.719640 0.638700 -1.525540
0.853360 0.621985 -1.486721
-1.219300 0.872710 -2.091943
-1.085580 0.855995 -2.053338
-0.951860 0.839280 -2.014673
-0.935145 0.839280 -2.008145
-0.818140 0.822565 -1.975750
-0.801425 0.822565 -1.969609
-0.667705 0.805850 -1.930822
-0.550700 0.772420 -1.850446
-0.366835 0.755705 -1.813071
-0.233115 0.738990 -1.774116
-0.216400 0.738990 -1.767846
-0.082680 0.722275 -1.728968
0.051040 0.705560 -1.690379
0.184760 0.688845 -1.651244
0.318480 0.672130 -1.612469
0.452200 0.655415 -1.573693
0.535775 0.638700 -1.534060
0.702925 0.638700 -1.530946
0.836645 0.621985 -1.493130
-1.252730 0.872710 -2.104355
-1.236015 0.872710 -2.098169
-1.119010 0.855995 -2.065749
-1.102295 0.855995 -2.059341
-0.968575 0.839280 -2.021071
-0.834855 0.822565 -1.981854
-0.701135 0.805850 -1.943531
-0.684420 0.805850 -1.937197
-0.383550 0.755705 -1.818970
-0.249830 0.738990 -1.780331
-0.116110 0.722275 -1.741234
-0.099395 0.722275 -1.735584
0.017610 0.705560 -1.703069
0.034325 0.705560 -1.696080
0.168045 0.688845 -1.657603
0.301765 0.672130 -1.619123
0.435485 0.655415 -1.580373
0.519060 0.638700 -1.540415
0.686210 0.638700 -1.537629
0.819930 0.621985 -1.498989
-1.269445 0.872710 -2.110505
-1.135725 0.855995 -2.071769
-1.002005 0.839280 -2.033041
-0.985290 0.839280 -2.026934
-0.868285 0.822565 -1.994074
-0.851570 0.822565 -1.988260
-0.717850 0.805850 -1.949825
-0.584130 0.789135 -1.911118
-0.416980 0.755705 -1.831839
-0.400265 0.755705 -1.824824
-0.266545 0.738990 -1.786492
-0.132825 0.722275 -1.747394
0.000895 0.705560 -1.708641
0.134615 0.688845 -1.670104
0.151330 0.688845 -1.664121
0.285050 0.672130 -1.625157
0.418770 0.655415 -1.586543
0.669495 0.638700 -1.544252
0.803215 0.621985 -1.504756
-1.286160 0.872710 -2.116622
-1.169155 0.855995 -2.084726
-1.152440 0.855995 -2.078140
-1.018720 0.839280 -2.039385
-0.885000 0.822565 -2.000764
-0.751280 0.805850 -1.962170
-0.734565 0.805850 -1.956082
-0.600845 0.789135 -1.916786
-0.433695 0.755705 -1.837596
-0.299975 0.738990 -1.798658
-0.283260 0.738990 -1.792601
-0.149540 0.722275 -1.753848
-0.015820 0.705560 -1.715487
0.117900 0.688845 -1.676341
0.268335 0.672130 -1.631337
0.402055 0.655415 -1.592350
0.502345 0.638700 -1.552019
0.636065 0.638700 -1.555847
0.652780 0.638700 -1.550460
0.786500 0.621985 -1.511914
-1.185870 0.855995 -2.090672
-1.052150 0.839280 -2.051927
-1.035435 0.839280 -2.045529
-0.918430 0.822565 -2.012970
-0.901715 0.822565 -2.007037
-0.767995 0.805850 -1.968480
-0.634275 0.789135 -1.929669
-0.617560 0.789135 -1.923249
-0.517270 0.755705 -1.849267
-0.500555 0.755705 -1.848384
-0.450410 0.755705 -1.844508
-0.316690 0.738990 -1.805182
-0.182970 0.722275 -1.766577
-0.166255 0.722275 -1.760242
-0.032535 0.705560 -1.720939
0.101185 0.688845 -1.682479
0.234905 0.672130 -1.644294
0.251620 0.672130 -1.637910
0.385340 0.655415 -1.598472
0.619350 0.638700 -1.562219
0.769785 0.621985 -1.517496
-1.219300 0.855995 -2.103361
-1.202585 0.855995 -2.096577
-1.068865 0.839280 -2.058127
-0.935145 0.822565 -2.019531
-0.801425 0.805850 -1.980653
-0.784710 0.805850 -1.974625
-0.650990 0.789135 -1.936048
-0.533985 0.755705 -1.854846
-0.483840 0.755705 -1.856989
-0.467125 0.755705 -1.850177
-0.333405 0.738990 -1.811848
-0.199685 0.722275 -1.772853
-0.065965 0.705560 -1.734300
-0.049250 0.705560 -1.727654
0.084470 0.688845 -1.689012
0.218190 0.672130 -1.650378
0.368625 0.655415 -1.605042
0.602635 0.638700 -1.568509
0.753070 0.621985 -1.523258
0.886790 0.605270 -1.485043
-1.236015 0.855995 -2.109182
-1.102295 0.839280 -2.070388
-1.085580 0.839280 -2.064280
-0.968575 0.822565 -2.031601
-0.951860 0.822565 -2.025837
-0.818140 0.805850 -1.986806
-0.684420 0.789135 -1.947544
-0.667705 0.789135 -1.942357
-0.550700 0.755705 -1.861558
-0.366835 0.738990 -1.823611
-0.350120 0.738990 -1.817753
-0.216400 0.722275 -1.779075
-0.082680 0.705560 -1.740069
0.051040 0.688845 -1.701720
0.067755 0.688845 -1.694721
0.201475 0.672130 -1.656647
0.335195 0.655415 -1.617465
0.351910 0.655415 -1.611914
0.485630 0.638700 -1.572667
0.585920 0.638700 -1.574720
0.719640 0.621985 -1.536622
0.736355 0.621985 -1.529860
0.870075 0.605270 -1.491785
-1.269445 0.855995 -2.121617
-1.252730 0.855995 -2.115612
-1.135725 0.839280 -2.082580
-1.119010 0.839280 -2.076450
-0.985290 0.822565 -2.037842
-0.851570 0.805850 -1.999014
-0.834855 0.805850 -1.992845
-0.701135 0.789135 -1.954396
-0.383550 0.738990 -1.830631
-0.249830 0.722275 -1.791358
-0.233115 0.722275 -1.785244
-0.099395 0.705560 -1.746103
0.034325 0.688845 -1.707300
0.184760 0.672130 -1.662712
0.318480 0.655415 -1.623677
0.452200 0.638700 -1.584560
0.468915 0.638700 -1.578648
0.702925 0.621985 -1.541875
0.853360 0.605270 -1.497692
-1.286160 0.855995 -2.127717
-1.152440 0.839280 -2.088822
-1.018720 0.822565 -2.050084
-1.002005 0.822565 -2.044169
-0.868285 0.805850 -2.005414
-0.734565 0.789135 -1.966867
-0.717850 0.789135 -1.960199
-0.584130 0.772420 -1.922091
-0.416980 0.738990 -1.842492
-0.400265 0.738990 -1.836395
-0.266545 0.722275 -1.797421
-0.132825 0.705560 -1.758966
-0.116110 0.705560 -1.752565
0.017610 0.688845 -1.714156
0.151330 0.672130 -1.674882
0.168045 0.672130 -1.668705
0.301765 0.655415 -1.630153
0.435485 0.638700 -1.591433
0.519060 0.621985 -1.550899
0.535775 0.621985 -1.544559
0.686210 0.621985 -1.548461
0.836645 0.605270 -1.503506
-1.185870 0.839280 -2.101195
-1.169155 0.839280 -2.095027
-1.035435 0.822565 -2.056676
-0.901715 0.805850 -2.017770
-0.885000 0.805850 -2.011865
-0.751280 0.789135 -1.972851
-0.617560 0.772420 -1.933920
-0.600845 0.772420 -1.927536
-0.433695 0.738990 -1.848985
-0.283260 0.722275 -1.803435
-0.149540 0.705560 -1.765307
0.000895 0.688845 -1.719616
0.134615 0.672130 -1.681049
0.285050 0.655415 -1.636245
0.418770 0.638700 -1.597467
0.669495 0.621985 -1.554957
0.803215 0.605270 -1.516343
0.819930 0.605270 -1.510161
-1.202585 0.839280 -2.107328
-1.068865 0.822565 -2.068994
-1.052150 0.822565 -2.062716
-0.918430 0.805850 -2.024180
-0.784710 0.789135 -1.985509
-0.767995 0.789135 -1.978781
-0.634275 0.772420 -1.940095
-0.517270 0.738990 -1.860388
-0.500555 0.738990 -1.859546
-0.450410 0.738990 -1.854618
-0.316690 0.722275 -1.816534
-0.299975 0.722275 -1.810624
-0.166255 0.705560 -1.771591
-0.032535 0.688845 -1.732992
-0.015820 0.688845 -1.726339
0.117900 0.672130 -1.687643
0.251620 0.655415 -1.649078
0.268335 0.655415 -1.642789
0.402055 0.638700 -1.603699
0.502345 0.621985 -1.563455
0.652780 0.621985 -1.561368
0.786500 0.605270 -1.521885
-1.236015 0.839280 -2.119537
-1.219300 0.839280 -2.113771
-1.085580 0.822565 -2.075085
-0.951860 0.805850 -2.036288
-0.935145 0.805850 -2.030578
-0.801425 0.789135 -1.991478
-0.667705 0.772420 -1.952671
-0.650990 0.772420 -1.946403
-0.533985 0.738990 -1.865890
-0.483840 0.738990 -1.868114
-0.467125 0.738990 -1.861391
-0.333405 0.722275 -1.822398
-0.199685 0.705560 -1.783994
-0.182970 0.705560 -1.777820
-0.049250 0.688845 -1.738896
0.084470 0.672130 -1.700370
0.101185 0.672130 -1.693362
0.234905 0.655415 -1.655228
0.385340 0.638700 -1.610093
0.636065 0.621985 -1.567308
0.769785 0.605270 -1.528795
-1.269445 0.839280 -2.132683
-1.252730 0.839280 -2.126179
-1.119010 0.822565 -2.087868
-1.102295 0.822565 -2.081591
-0.968575 0.805850 -2.042569
-0.834855 0.789135 -2.003714
-0.818140 0.789135 -1.997739
-0.684420 0.772420 -1.958900
-0.550700 0.738990 -1.872516
-0.366835 0.722275 -1.835194
-0.350120 0.722275 -1.829397
-0.216400 0.705560 -1.790115
-0.082680 0.688845 -1.751281
-0.065965 0.688845 -1.744811
0.067755 0.672130 -1.705958
0.218190 0.655415 -1.661302
0.351910 0.638700 -1.622454
0.368625 0.638700 -1.616004
0.602635 0.621985 -1.579856
0.619350 0.621985 -1.573944
0.753070 0.605270 -1.534169
0.903505 0.588555 -1.490341
-1.286160 0.839280 -2.138642
-1.152440 0.822565 -2.099941
-1.135725 0.822565 -2.094025
-1.002005 0.805850 -2.055213
-0.985290 0.805850 -2.048955
-0.851570 0.789135 -2.010089
-0.717850 0.772420 -1.971248
-0.701135 0.772420 -1.965093
-0.383550 0.722275 -1.840919
-0.249830 0.705560 -1.802204
-0.233115 0.705560 -1.796184
-0.099395 0.688845 -1.757688
0.051040 0.672130 -1.712823
0.184760 0.655415 -1.673411
0.201475 0.655415 -1.667306
0.335195 0.638700 -1.628685
0.485630 0.621985 -1.583860
0.585920 0.621985 -1.586210
0.736355 0.605270 -1.540892
0.870075 0.588555 -1.502240
0.886790 0.588555 -1.496380
-1.302875 0.839280 -2.144940
-1.169155 0.822565 -2.106341
-1.035435 0.805850 -2.067591
-1.018720 0.805850 -2.061426
-0.885000 0.789135 -2.022544
-0.868285 0.789135 -2.016219
-0.734565 0.772420 -1.977367
-0.600845 0.755705 -1.938950
-0.584130 0.755705 -1.932599
-0.416980 0.722275 -1.853431
-0.400265 0.722275 -1.847794
-0.266545 0.705560 -1.809399
-0.116110 0.688845 -1.764037
0.017610 0.672130 -1.725023
0.034325 0.672130 -1.718292
0.168045 0.655415 -1.680482
0.318480 0.638700 -1.635088
0.452200 0.621985 -1.595729
0.468915 0.621985 -1.589737
0.552490 0.605270 -1.549806
0.702925 0.605270 -1.552687
0.719640 0.605270 -1.547249
0.853360 0.588555 -1.508010
-1.202585 0.822565 -2.118479
-1.185870 0.822565 -2.112428
-1.052150 0.805850 -2.073710
-0.918430 0.789135 -2.035227
-0.901715 0.789135 -2.028697
-0.767995 0.772420 -1.989664
-0.751280 0.772420 -1.983512
-0.617560 0.755705 -1.945261
-0.433695 0.722275 -1.860209
-0.283260 0.705560 -1.815315
-0.149540 0.688845 -1.776563
-0.132825 0.688845 -1.770328
0.000895 0.672130 -1.731684
0.151330 0.655415 -1.686273
0.285050 0.638700 -1.647646
0.301765 0.638700 -1.641147
0.435485 0.621985 -1.602444
0.535775 0.605270 -1.556009
0.686210 0.605270 -1.559122
0.836645 0.588555 -1.515123
-1.236015 0.822565 -2.130742
-1.219300 0.822565 -2.124499
-1.085580 0.805850 -2.085815
-1.068865 0.805850 -2.079785
-0.935145 0.789135 -2.041110
-0.784710 0.772420 -1.996462
-0.650990 0.755705 -1.957767
-0.634275 0.755705 -1.951533
-0.517270 0.722275 -1.871355
-0.500555 0.722275 -1.870552
-0.467125 0.722275 -1.872447
-0.450410 0.722275 -1.866021
-0.316690 0.705560 -1.827009
-0.299975 0.705560 -1.821186
-0.166255 0.688845 -1.782743
-0.015820 0.672130 -1.736979
0.117900 0.655415 -1.699020
0.134615 0.655415 -1.692002
0.268335 0.638700 -1.653806
0.418770 0.621985 -1.608946
0.519060 0.605270 -1.562173
0.669495 0.605270 -1.565499
0.819930 0.588555 -1.520759
-1.252730 0.822565 -2.137325
-1.119010 0.805850 -2.098222
-1.102295 0.805850 -2.091914
-0.968575 0.789135 -2.053634
-0.951860 0.789135 -2.047450
-0.818140 0.772420 -2.008552
-0.801425 0.772420 -2.002607
-0.667705 0.755705 -1.963951
-0.533985 0.722275 -1.877708
-0.483840 0.722275 -1.879085
-0.333405 0.705560 -1.833991
-0.182970 0.688845 -1.788871
-0.049250 0.672130 -1.749995
-0.032535 0.672130 -1.743519
0.101185 0.655415 -1.704616
0.251620 0.638700 -1.659892
0.402055 0.621985 -1.615135
0.652780 0.605270 -1.571794
0.786500 0.588555 -1.533131
0.803215 0.588555 -1.527402
-1.286160 0.822565 -2.149462
-1.269445 0.822565 -2.143519
-1.135725 0.805850 -2.104577
-1.002005 0.789135 -2.066038
-0.985290 0.789135 -2.059711
-0.851570 0.772420 -2.021118
-0.834855 0.772420 -2.014708
-0.701135 0.755705 -1.976245
-0.684420 0.755705 -1.970122
-0.366835 0.705560 -1.846603
-0.350120 0.705560 -1.839722
-0.216400 0.688845 -1.800972
-0.199685 0.688845 -1.794948
-0.065965 0.672130 -1.756410
0.084470 0.655415 -1.711490
0.218190 0.638700 -1.671929
0.234905 0.638700 -1.665905
0.368625 0.621985 -1.627435
0.385340 0.621985 -1.620715
0.502345 0.605270 -1.577914
0.619350 0.605270 -1.584151
0.636065 0.605270 -1.578011
0.769785 0.588555 -1.539610
-1.302875 0.822565 -2.155924
-1.169155 0.805850 -2.117177
-1.152440 0.805850 -2.110437
-1.018720 0.789135 -2.072323
-0.868285 0.772420 -2.027294
-0.734565 0.755705 -1.988387
-0.717850 0.755705 -1.982333
-0.584130 0.738990 -1.943326
-0.383550 0.705560 -1.852245
-0.233115 0.688845 -1.806948
-0.082680 0.672130 -1.762766
0.051040 0.655415 -1.723706
0.067755 0.655415 -1.716967
0.201475 0.638700 -1.679104
0.351910 0.621985 -1.633630
0.602635 0.605270 -1.590217
0.753070 0.588555 -1.545152
0.903505 0.571840 -1.500958
-1.202585 0.805850 -2.129460
-1.185870 0.805850 -2.123484
-1.052150 0.789135 -2.084485
-1.035435 0.789135 -2.078427
-0.901715 0.772420 -2.039639
-0.885000 0.772420 -2.033164
-0.751280 0.755705 -1.994669
-0.600845 0.738990 -1.949597
-0.416980 0.705560 -1.864585
-0.400265 0.705560 -1.859028
-0.266545 0.688845 -1.819971
-0.249830 0.688845 -1.814096
-0.116110 0.672130 -1.775306
-0.099395 0.672130 -1.769065
0.034325 0.655415 -1.730376
0.184760 0.638700 -1.684904
0.335195 0.621985 -1.639961
0.468915 0.605270 -1.600683
0.485630 0.605270 -1.594904
0.585920 0.605270 -1.596886
0.736355 0.588555 -1.551744
0.886790 0.571840 -1.506774
-1.236015 0.805850 -2.141877
-1.219300 0.805850 -2.135402
-1.085580 0.789135 -2.097100
-1.068865 0.789135 -2.090574
-0.935145 0.772420 -2.052254
-0.918430 0.772420 -2.045933
-0.784710 0.755705 -2.007278
-0.767995 0.755705 -2.000597
-0.634275 0.738990 -1.961957
-0.617560 0.738990 -1.955807
-0.433695 0.705560 -1.871275
-0.283260 0.688845 -1.825801
-0.132825 0.672130 -1.781493
0.000895 0.655415 -1.742226
0.017610 0.655415 -1.735679
0.151330 0.638700 -1.697668
0.168045 0.638700 -1.690640
0.301765 0.621985 -1.652384
0.318480 0.621985 -1.646212
0.452200 0.605270 -1.607436
0.552490 0.588555 -1.561147
0.719640 0.588555 -1.558246
0.853360 0.571840 -1.519620
0.870075 0.571840 -1.513204
-1.252730 0.805850 -2.148346
-1.102295 0.789135 -2.103202
-0.951860 0.772420 -2.058247
-0.801425 0.755705 -2.013365
-0.650990 0.738990 -1.968310
-0.517270 0.705560 -1.882175
-0.500555 0.705560 -1.882449
-0.467125 0.705560 -1.883353
-0.450410 0.705560 -1.877918
-0.316690 0.688845 -1.838525
-0.299975 0.688845 -1.832789
-0.166255 0.672130 -1.793709
-0.149540 0.672130 -1.787627
-0.015820 0.655415 -1.748709
0.134615 0.638700 -1.703274
0.285050 0.621985 -1.658480
0.435485 0.605270 -1.613322
0.535775 0.588555 -1.567408
0.686210 0.588555 -1.570507
0.702925 0.588555 -1.564662
0.836645 0.571840 -1.525163
-1.286160 0.805850 -2.160436
-1.269445 0.805850 -2.154194
-1.135725 0.789135 -2.115306
-1.119010 0.789135 -2.109273
-0.985290 0.772420 -2.070627
-0.968575 0.772420 -2.064751
-0.834855 0.755705 -2.025822
-0.818140 0.755705 -2.019274
-0.684420 0.738990 -1.981076
-0.667705 0.738990 -1.975103
-0.533985 0.705560 -1.888680
-0.483840 0.705560 -1.889909
-0.333405 0.688845 -1.845411
-0.182970 0.672130 -1.799741
-0.032535 0.655415 -1.755131
0.117900 0.638700 -1.710156
0.268335 0.621985 -1.664504
0.418770 0.605270 -1.619597
0.519060 0.588555 -1.573425
0.669495 0.588555 -1.576580
0.819930 0.571840 -1.532079
-1.319590 0.805850 -2.172692
-1.302875 0.805850 -2.166845
-1.169155 0.789135 -2.128439
-1.152440 0.789135 -2.121786
-1.018720 0.772420 -2.083145
-1.002005 0.772420 -2.077059
-0.868285 0.755705 -2.038001
-0.851570 0.755705 -2.032020
-0.717850 0.738990 -1.993294
-0.701135 0.738990 -1.987271
-0.366835 0.688845 -1.857847
-0.350120 0.688845 -1.851058
-0.216400 0.672130 -1.812877
-0.199685 0.672130 -1.805723
-0.065965 0.655415 -1.767800
-0.049250 0.655415 -1.761495
0.084470 0.638700 -1.722388
0.101185 0.638700 -1.715641
0.234905 0.621985 -1.677724
0.251620 0.621985 -1.670458
0.385340 0.605270 -1.632173
0.402055 0.605270 -1.625746
0.652780 0.588555 -1.582485
0.803215 0.571840 -1.537466
-1.202585 0.789135 -2.140274
-1.185870 0.789135 -2.134188
-1.052150 0.772420 -2.095186
-1.035435 0.772420 -2.089187
-0.885000 0.755705 -2.044404
-0.734565 0.738990 -1.999282
-0.584130 0.722275 -1.954364
-0.383550 0.688845 -1.863408
-0.233115 0.672130 -1.818757
-0.082680 0.655415 -1.774049
0.067755 0.638700 -1.728417
0.218190 0.621985 -1.683532
0.368625 0.605270 -1.638515
0.619350 0.588555 -1.595550
0.636065 0.588555 -1.589115
0.769785 0.571840 -1.550818
0.786500 0.571840 -1.544184
-1.219300 0.789135 -2.146429
-1.068865 0.772420 -2.101595
-0.918430 0.755705 -2.056734
-0.901715 0.755705 -2.050390
-0.767995 0.738990 -2.011890
-0.751280 0.738990 -2.005434
-0.617560 0.722275 -1.966743
-0.600845 0.722275 -1.960573
-0.416980 0.688845 -1.875821
-0.400265 0.688845 -1.870104
-0.266545 0.672130 -1.831586
-0.249830 0.672130 -1.824593
-0.116110 0.655415 -1.786383
-0.099395 0.655415 -1.780243
0.034325 0.638700 -1.740932
0.051040 0.638700 -1.734377
0.184760 0.621985 -1.696316
0.201475 0.621985 -1.689428
0.351910 0.605270 -1.644777
0.602635 0.588555 -1.601509
0.753070 0.571840 -1.556156
0.903505 0.555125 -1.511294
-1.252730 0.789135 -2.158937
-1.236015 0.789135 -2.152945
-1.102295 0.772420 -2.114314
-1.085580 0.772420 -2.107986
-0.951860 0.755705 -2.069308
-0.935145 0.755705 -2.063040
-0.801425 0.738990 -2.024010
-0.784710 0.738990 -2.018153
-0.650990 0.722275 -1.979181
-0.634275 0.722275 -1.973170
-0.433695 0.688845 -1.882190
-0.283260 0.672130 -1.837327
-0.132825 0.655415 -1.792471
0.017610 0.638700 -1.747423
0.168045 0.621985 -1.701929
0.318480 0.605270 -1.657067
0.335195 0.605270 -1.650961
0.468915 0.588555 -1.612626
0.485630 0.588555 -1.605926
0.585920 0.588555 -1.607581
0.736355 0.571840 -1.562425
0.886790 0.555125 -1.518026
-1.286160 0.789135 -2.171345
-1.269445 0.789135 -2.164949
-1.135725 0.772420 -2.126397
-1.119010 0.772420 -2.120305
-0.985290 0.755705 -2.081731
-0.968575 0.755705 -2.075537
-0.818140 0.738990 -2.030282
-0.667705 0.722275 -1.985632
-0.517270 0.688845 -1.893874
-0.500555 0.688845 -1.893271
-0.467125 0.688845 -1.895156
-0.450410 0.688845 -1.888752
-0.316690 0.672130 -1.849871
-0.299975 0.672130 -1.843027
-0.166255 0.655415 -1.804497
-0.149540 0.655415 -1.798509
0.000895 0.638700 -1.753853
0.151330 0.621985 -1.708822
0.301765 0.605270 -1.663101
0.452200 0.588555 -1.618380
0.552490 0.571840 -1.572059
0.702925 0.571840 -1.575107
0.719640 0.571840 -1.568807
0.870075 0.555125 -1.524052
-1.319590 0.789135 -2.184022
-1.302875 0.789135 -2.177316
-1.169155 0.772420 -2.138771
-1.152440 0.772420 -2.132189
-1.002005 0.755705 -2.087864
-0.851570 0.738990 -2.042863
-0.834855 0.738990 -2.036723
-0.701135 0.722275 -1.997888
-0.684420 0.722275 -1.992046
-0.533985 0.688845 -1.899397
-0.483840 0.688845 -1.900876
-0.333405 0.672130 -1.856413
-0.182970 0.655415 -1.811043
-0.032535 0.638700 -1.766535
-0.015820 0.638700 -1.760221
0.117900 0.621985 -1.721070
0.134615 0.621985 -1.714315
0.268335 0.605270 -1.676343
0.285050 0.605270 -1.670131
0.435485 0.588555 -1.624611
0.535775 0.571840 -1.578647
0.686210 0.571840 -1.581327
0.836645 0.555125 -1.536430
0.853360 0.555125 -1.530042
-1.202585 0.772420 -2.150984
-1.185870 0.772420 -2.145097
-1.035435 0.755705 -2.100091
-1.018720 0.755705 -2.093973
-0.885000 0.738990 -2.055008
-0.868285 0.738990 -2.049248
-0.734565 0.722275 -2.010061
-0.717850 0.722275 -2.004134
-0.366835 0.672130 -1.868931
-0.350120 0.672130 -1.862232
-0.216400 0.655415 -1.823384
-0.199685 0.655415 -1.817543
-0.049250 0.638700 -1.772399
0.101185 0.621985 -1.727182
0.251620 0.605270 -1.682161
0.402055 0.588555 -1.637068
0.418770 0.588555 -1.630714
0.519060 0.571840 -1.584560
0.669495 0.571840 -1.587472
0.819930 0.555125 -1.542585
-1.219300 0.772420 -2.157485
-1.068865 0.755705 -2.112642
-1.052150 0.755705 -2.106144
-0.918430 0.738990 -2.067406
-0.901715 0.738990 -2.061761
-0.751280 0.722275 -2.016449
-0.600845 0.705560 -1.971755
-0.584130 0.705560 -1.965617
-0.400265 0.672130 -1.881028
-0.383550 0.672130 -1.874417
-0.233115 0.655415 -1.829648
-0.082680 0.638700 -1.785138
-0.065965 0.638700 -1.778978
0.067755 0.621985 -1.739638
0.084470 0.621985 -1.733076
0.234905 0.605270 -1.688641
0.385340 0.588555 -1.643341
0.502345 0.571840 -1.596833
0.636065 0.571840 -1.599542
0.652780 0.571840 -1.593543
0.803215 0.555125 -1.548609
-1.252730 0.772420 -2.170029
-1.236015 0.772420 -2.163638
-1.102295 0.755705 -2.125236
-1.085580 0.755705 -2.118496
-0.951860 0.738990 -2.079685
-0.935145 0.738990 -2.074095
-0.784710 0.722275 -2.028745
-0.767995 0.722275 -2.022916
-0.634275 0.705560 -1.983925
-0.617560 0.705560 -1.977857
-0.416980 0.672130 -1.887592
-0.266545 0.655415 -1.841834
-0.249830 0.655415 -1.836131
-0.116110 0.638700 -1.797277
-0.099395 0.638700 -1.791232
0.051040 0.621985 -1.746136
0.201475 0.605270 -1.700585
0.218190 0.605270 -1.694936
0.351910 0.588555 -1.655811
0.368625 0.588555 -1.649536
0.619350 0.571840 -1.606259
0.769785 0.555125 -1.561562
0.786500 0.555125 -1.555056
-1.286160 0.772420 -2.182194
-1.269445 0.772420 -2.176220
-1.135725 0.755705 -2.137056
-1.119010 0.755705 -2.131170
-0.968575 0.738990 -2.086312
-0.818140 0.722275 -2.041310
-0.801425 0.722275 -2.034841
-0.667705 0.705560 -1.996087
-0.650990 0.705560 -1.990208
-0.450410 0.672130 -1.899442
-0.433695 0.672130 -1.893801
-0.299975 0.655415 -1.854300
-0.283260 0.655415 -1.848684
-0.132825 0.638700 -1.803270
0.017610 0.621985 -1.758951
0.034325 0.621985 -1.752574
0.168045 0.605270 -1.712993
0.184760 0.605270 -1.707487
0.335195 0.588555 -1.662217
0.485630 0.571840 -1.616578
0.602635 0.571840 -1.612647
0.753070 0.555125 -1.567367
0.903505 0.538410 -1.522741
0.920220 0.538410 -1.516120
-1.319590 0.772420 -2.194512
-1.302875 0.772420 -2.188677
-1.169155 0.755705 -2.149878
-1.152440 0.755705 -2.143354
-1.002005 0.738990 -2.098594
-0.985290 0.738990 -2.092585
-0.851570 0.722275 -2.053786
-0.834855 0.722275 -2.047461
-0.684420 0.705560 -2.002917
-0.533985 0.672130 -1.910883
-0.517270 0.672130 -1.904533
-0.500555 0.672130 -1.904400
-0.483840 0.672130 -1.912278
-0.467125 0.672130 -1.905881
-0.316690 0.655415 -1.861054
-0.166255 0.638700 -1.816329
-0.149540 0.638700 -1.809216
0.000895 0.621985 -1.764691
0.151330 0.605270 -1.719752
0.318480 0.588555 -1.668617
0.468915 0.571840 -1.623431
0.585920 0.571840 -1.618437
0.736355 0.555125 -1.573582
0.886790 0.538410 -1.528471
-1.336305 0.772420 -2.201015
-1.202585 0.755705 -2.162029
-1.185870 0.755705 -2.155667
-1.035435 0.738990 -2.111179
-1.018720 0.738990 -2.104954
-0.885000 0.722275 -2.066320
-0.868285 0.722275 -2.060071
-0.717850 0.705560 -2.014857
-0.701135 0.705560 -2.008959
-0.350120 0.655415 -1.873249
-0.333405 0.655415 -1.866889
-0.182970 0.638700 -1.822175
-0.032535 0.621985 -1.776960
-0.015820 0.621985 -1.771341
0.134615 0.605270 -1.725940
0.285050 0.588555 -1.680788
0.301765 0.588555 -1.674933
0.435485 0.571840 -1.635681
0.452200 0.571840 -1.629253
0.552490 0.555125 -1.583081
0.702925 0.555125 -1.586481
0.719640 0.555125 -1.580114
0.870075 0.538410 -1.535394
-1.219300 0.755705 -2.168295
-1.068865 0.738990 -2.123139
-1.052150 0.738990 -2.117153
-0.901715 0.722275 -2.072529
-0.751280 0.705560 -2.027654
-0.734565 0.705560 -2.021067
-0.584130 0.688845 -1.976365
-0.366835 0.655415 -1.879865
-0.216400 0.638700 -1.834932
-0.199685 0.638700 -1.827977
-0.049250 0.621985 -1.783893
0.101185 0.605270 -1.738343
0.117900 0.605270 -1.731773
0.268335 0.588555 -1.687395
0.418770 0.571840 -1.641904
0.519060 0.555125 -1.595549
0.535775 0.555125 -1.589737
0.686210 0.555125 -1.592116
0.836645 0.538410 -1.547504
0.853360 0.538410 -1.540770
-1.252730 0.755705 -2.180798
-1.236015 0.755705 -2.174885
-1.102295 0.738990 -2.136031
-1.085580 0.738990 -2.129864
-0.935145 0.722275 -2.084839
-0.918430 0.722275 -2.078703
-0.784710 0.705560 -2.039743
-0.767995 0.705560 -2.033456
-0.617560 0.688845 -1.988846
-0.600845 0.688845 -1.982810
-0.400265 0.655415 -1.891805
-0.383550 0.655415 -1.886435
-0.233115 0.638700 -1.840641
-0.082680 0.621985 -1.796043
-0.065965 0.621985 -1.789994
0.084470 0.605270 -1.744849
0.234905 0.588555 -1.699338
0.251620 0.588555 -1.693545
0.402055 0.571840 -1.648110
0.652780 0.555125 -1.604785
0.669495 0.555125 -1.598893
0.819930 0.538410 -1.553497
-1.286160 0.755705 -2.193179
-1.269445 0.755705 -2.186747
-1.135725 0.738990 -2.147940
-1.119010 0.738990 -2.141875
-0.968575 0.722275 -2.097307
-0.951860 0.722275 -2.090942
-0.801425 0.705560 -2.046057
-0.650990 0.688845 -2.001136
-0.634275 0.688845 -1.994849
-0.433695 0.655415 -1.904736
-0.416980 0.655415 -1.898292
-0.266545 0.638700 -1.853118
-0.249830 0.638700 -1.847497
-0.116110 0.621985 -1.807995
-0.099395 0.621985 -1.802043
0.051040 0.605270 -1.756877
0.067755 0.605270 -1.751235
0.201475 0.588555 -1.711685
0.218190 0.588555 -1.706150
0.368625 0.571840 -1.660686
0.385340 0.571840 -1.654240
0.502345 0.555125 -1.607998
0.636065 0.555125 -1.610748
0.786500 0.538410 -1.565756
0.803215 0.538410 -1.559489
-1.319590 0.755705 -2.205459
-1.302875 0.755705 -2.199334
-1.169155 0.738990 -2.160365
-1.152440 0.738990 -2.154611
-1.002005 0.722275 -2.109251
-0.985290 0.722275 -2.103300
-0.834855 0.705560 -2.058530
-0.818140 0.705560 -2.052589
-0.684420 0.688845 -2.013692
-0.667705 0.688845 -2.007105
-0.517270 0.655415 -1.916065
-0.500555 0.655415 -1.915408
-0.450410 0.655415 -1.911137
-0.299975 0.638700 -1.865414
-0.283260 0.638700 -1.859876
-0.132825 0.621985 -1.815114
0.017610 0.605270 -1.769159
0.034325 0.605270 -1.763601
0.184760 0.588555 -1.718433
0.351910 0.571840 -1.667092
0.619350 0.555125 -1.616908
0.769785 0.538410 -1.572142
-1.336305 0.755705 -2.211750
-1.202585 0.738990 -2.172969
-1.185870 0.738990 -2.166994
-1.035435 0.722275 -2.122096
-1.018720 0.722275 -2.116094
-0.868285 0.705560 -2.070882
-0.851570 0.705560 -2.064268
-0.701135 0.688845 -2.019629
-0.533985 0.655415 -1.922339
-0.483840 0.655415 -1.923361
-0.467125 0.655415 -1.917498
-0.316690 0.638700 -1.872080
-0.166255 0.621985 -1.826772
-0.149540 0.621985 -1.820966
0.000895 0.605270 -1.775791
0.151330 0.588555 -1.730538
0.168045 0.588555 -1.724688
0.318480 0.571840 -1.679415
0.335195 0.571840 -1.673440
0.485630 0.555125 -1.628473
0.585920 0.555125 -1.629335
0.602635 0.555125 -1.623641
0.753070 0.538410 -1.578446
0.903505 0.521695 -1.532879
0.920220 0.521695 -1.527374
-1.236015 0.738990 -2.185337
-1.219300 0.738990 -2.179404
-1.068865 0.722275 -2.134493
-1.052150 0.722275 -2.127996
-0.901715 0.705560 -2.083115
-0.885000 0.705560 -2.076724
-0.734565 0.688845 -2.032367
-0.717850 0.688845 -2.026031
-0.584130 0.672130 -1.987509
-0.350120 0.638700 -1.884182
-0.333405 0.638700 -1.878702
-0.199685 0.621985 -1.839448
-0.182970 0.621985 -1.833734
-0.032535 0.605270 -1.788755
-0.015820 0.605270 -1.782377
0.134615 0.588555 -1.737047
0.301765 0.571840 -1.685963
0.452200 0.555125 -1.640663
0.468915 0.555125 -1.634171
0.719640 0.538410 -1.590820
0.736355 0.538410 -1.584671
0.886790 0.521695 -1.539759
-1.269445 0.738990 -2.197643
-1.252730 0.738990 -2.192062
-1.102295 0.722275 -2.146735
-1.085580 0.722275 -2.140844
-0.935145 0.705560 -2.096009
-0.918430 0.705560 -2.089721
-0.767995 0.688845 -2.044645
-0.751280 0.688845 -2.038219
-0.600845 0.672130 -1.993451
-0.383550 0.638700 -1.897142
-0.366835 0.638700 -1.890652
-0.216400 0.621985 -1.846308
-0.049250 0.605270 -1.794810
0.101185 0.588555 -1.750014
0.117900 0.588555 -1.743562
0.268335 0.571840 -1.698269
0.285050 0.571840 -1.692170
0.435485 0.555125 -1.647120
0.535775 0.538410 -1.600683
0.552490 0.538410 -1.594434
0.702925 0.538410 -1.596894
0.870075 0.521695 -1.545583
-1.302875 0.738990 -2.209919
-1.286160 0.738990 -2.204138
-1.135725 0.722275 -2.159304
-1.119010 0.722275 -2.152859
-0.968575 0.705560 -2.108071
-0.951860 0.705560 -2.102029
-0.801425 0.688845 -2.057130
-0.784710 0.688845 -2.050865
-0.634275 0.672130 -2.005653
-0.617560 0.672130 -1.999713
-0.416980 0.638700 -1.909920
-0.400265 0.638700 -1.903590
-0.249830 0.621985 -1.858699
-0.233115 0.621985 -1.851935
-0.082680 0.605270 -1.806773
-0.065965 0.605270 -1.800816
0.084470 0.588555 -1.755754
0.234905 0.571840 -1.710368
0.251620 0.571840 -1.704815
0.402055 0.555125 -1.659116
0.418770 0.555125 -1.652824
0.519060 0.538410 -1.607195
0.669495 0.538410 -1.608832
0.686210 0.538410 -1.603137
0.836645 0.521695 -1.558395
0.853360 0.521695 -1.551794
-1.336305 0.738990 -2.223017
-1.319590 0.738990 -2.216439
-1.169155 0.722275 -2.171831
-1.152440 0.722275 -2.165569
-1.002005 0.705560 -2.120770
-0.985290 0.705560 -2.114028
-0.834855 0.688845 -2.069548
-0.818140 0.688845 -2.063110
-0.667705 0.672130 -2.018534
-0.650990 0.672130 -2.011966
-0.433695 0.638700 -1.915754
-0.283260 0.621985 -1.870913
-0.266545 0.621985 -1.864240
-0.116110 0.605270 -1.819756
-0.099395 0.605270 -1.812778
0.051040 0.588555 -1.768084
0.067755 0.588555 -1.761472
0.218190 0.571840 -1.717113
0.385340 0.555125 -1.665556
0.502345 0.538410 -1.619610
0.652780 0.538410 -1.615375
0.819930 0.521695 -1.564906
-1.353020 0.738990 -2.228704
-1.202585 0.722275 -2.183925
-1.185870 0.722275 -2.177541
-1.035435 0.705560 -2.132851
-1.018720 0.705560 -2.126619
-0.868285 0.688845 -2.081820
-0.851570 0.688845 -2.075702
-0.701135 0.672130 -2.030994
-0.684420 0.672130 -2.024377
-0.517270 0.638700 -1.926868
-0.500555 0.638700 -1.926834
-0.467125 0.638700 -1.928550
-0.450410 0.638700 -1.922143
-0.299975 0.621985 -1.876988
-0.132825 0.605270 -1.825568
0.017610 0.588555 -1.780239
0.034325 0.588555 -1.773981
0.184760 0.571840 -1.729165
0.201475 0.571840 -1.723428
0.351910 0.555125 -1.678040
0.368625 0.555125 -1.671935
0.619350 0.538410 -1.627676
0.636065 0.538410 -1.621807
0.786500 0.521695 -1.576543
0.803215 0.521695 -1.570122
-1.236015 0.722275 -2.196522
-1.219300 0.722275 -2.190269
-1.068865 0.705560 -2.145614
-1.052150 0.705560 -2.139124
-0.901715 0.688845 -2.093952
-0.885000 0.688845 -2.087904
-0.734565 0.672130 -2.043086
-0.717850 0.672130 -2.037058
-0.533985 0.638700 -1.933122
-0.483840 0.638700 -1.934251
-0.333405 0.621985 -1.889497
-0.316690 0.621985 -1.882958
-0.166255 0.605270 -1.838255
-0.149540 0.605270 -1.832535
0.000895 0.588555 -1.787069
0.168045 0.571840 -1.735751
0.335195 0.555125 -1.684521
0.602635 0.538410 -1.634025
0.769785 0.521695 -1.582949
-1.269445 0.722275 -2.208928
-1.252730 0.722275 -2.202844
-1.102295 0.705560 -2.158032
-1.085580 0.705560 -2.151463
-0.935145 0.688845 -2.106754
-0.918430 0.688845 -2.100724
-0.767995 0.672130 -2.055300
-0.751280 0.672130 -2.049548
-0.600845 0.655415 -2.004413
-0.584130 0.655415 -1.998547
-0.366835 0.621985 -1.902154
-0.350120 0.621985 -1.895992
-0.199685 0.605270 -1.850751
-0.182970 0.605270 -1.844374
-0.032535 0.588555 -1.799589
-0.015820 0.588555 -1.793576
0.134615 0.571840 -1.748733
0.151330 0.571840 -1.742273
0.301765 0.555125 -1.696886
0.318480 0.555125 -1.690899
0.468915 0.538410 -1.645637
0.485630 0.538410 -1.639029
0.585920 0.538410 -1.640325
0.736355 0.521695 -1.595718
0.753070 0.521695 -1.588928
0.903505 0.504980 -1.544113
0.920220 0.504980 -1.538318
-1.302875 0.722275 -2.221240
-1.286160 0.722275 -2.215270
-1.135725 0.705560 -2.170131
-1.119010 0.705560 -2.163952
-0.968575 0.688845 -2.118965
-0.951860 0.688845 -2.112715
-0.801425 0.672130 -2.067669
-0.784710 0.672130 -2.061344
-0.634275 0.655415 -2.016994
-0.617560 0.655415 -2.010463
-0.400265 0.621985 -1.914086
-0.383550 0.621985 -1.908132
-0.233115 0.605270 -1.863068
-0.216400 0.605270 -1.857136
-0.065965 0.588555 -1.811467
-0.049250 0.588555 -1.805551
0.101185 0.571840 -1.760270
0.117900 0.571840 -1.754623
0.268335 0.555125 -1.709041
0.285050 0.555125 -1.703477
0.452200 0.538410 -1.651734
0.552490 0.521695 -1.605715
0.719640 0.521695 -1.601572
0.886790 0.504980 -1.550853
-1.336305 0.722275 -2.233644
-1.319590 0.722275 -2.227295
-1.169155 0.705560 -2.182803
-1.152440 0.705560 -2.176400
-1.002005 0.688845 -2.131281
-0.985290 0.688845 -2.125447
-0.834855 0.672130 -2.080138
-0.818140 0.672130 -2.073921
-0.667705 0.655415 -2.029100
-0.650990 0.655415 -2.022701
-0.416980 0.621985 -1.920418
-0.249830 0.605270 -1.869744
-0.082680 0.588555 -1.818545
0.084470 0.571840 -1.766494
0.251620 0.555125 -1.715792
0.418770 0.538410 -1.664323
0.435485 0.538410 -1.658036
0.535775 0.521695 -1.611492
0.686210 0.521695 -1.614124
0.702925 0.521695 -1.608227
0.853360 0.504980 -1.562637
0.870075 0.504980 -1.556301
-1.353020 0.722275 -2.239883
-1.202585 0.705560 -2.194780
-1.185870 0.705560 -2.188730
-1.035435 0.688845 -2.143757
-1.018720 0.688845 -2.137659
-0.868285 0.672130 -2.093015
-0.851570 0.672130 -2.086531
-0.701135 0.655415 -2.041689
-0.684420 0.655415 -2.035366
-0.500555 0.621985 -1.937883
-0.450410 0.621985 -1.932965
-0.433695 0.621985 -1.926712
-0.283260 0.605270 -1.881798
-0.266545 0.605270 -1.875348
-0.116110 0.588555 -1.830136
-0.099395 0.588555 -1.824363
0.051040 0.571840 -1.778907
0.067755 0.571840 -1.772728
0.218190 0.555125 -1.727861
0.234905 0.555125 -1.722159
0.385340 0.538410 -1.676772
0.402055 0.538410 -1.670808
0.519060 0.521695 -1.618380
0.669495 0.521695 -1.619955
0.836645 0.504980 -1.569113
-1.236015 0.705560 -2.207329
-1.219300 0.705560 -2.201073
-1.068865 0.688845 -2.156067
-1.052150 0.688845 -2.150338
-0.901715 0.672130 -2.104991
-0.885000 0.672130 -2.099019
-0.734565 0.655415 -2.054217
-0.717850 0.655415 -2.047970
-0.533985 0.621985 -1.944348
-0.517270 0.621985 -1.938273
-0.483840 0.621985 -1.945439
-0.467125 0.621985 -1.939182
-0.316690 0.605270 -1.894842
-0.299975 0.605270 -1.888343
-0.149540 0.588555 -1.842743
-0.132825 0.588555 -1.837060
0.034325 0.571840 -1.785795
0.201475 0.555125 -1.734454
0.368625 0.538410 -1.683067
0.502345 0.521695 -1.630214
0.636065 0.521695 -1.632724
0.652780 0.521695 -1.626141
0.803215 0.504980 -1.581792
0.819930 0.504980 -1.575504
-1.269445 0.705560 -2.219603
-1.252730 0.705560 -2.213550
-1.102295 0.688845 -2.168560
-1.085580 0.688845 -2.162623
-0.935145 0.672130 -2.117424
-0.918430 0.672130 -2.111479
-0.767995 0.655415 -2.066595
-0.751280 0.655415 -2.060423
-0.584130 0.638700 -2.009364
-0.350120 0.605270 -1.906571
-0.333405 0.605270 -1.900492
-0.182970 0.588555 -1.855164
-0.166255 0.588555 -1.849567
0.000895 0.571840 -1.798360
0.017610 0.571840 -1.792343
0.168045 0.555125 -1.746630
0.184760 0.555125 -1.740870
0.335195 0.538410 -1.695492
0.351910 0.538410 -1.689357
0.619350 0.521695 -1.638844
0.786500 0.504980 -1.588041
-1.319590 0.705560 -2.238066
-1.302875 0.705560 -2.232509
-1.286160 0.705560 -2.225963
-1.135725 0.688845 -2.180931
-1.119010 0.688845 -2.174694
-0.968575 0.672130 -2.129698
-0.951860 0.672130 -2.123855
-0.801425 0.655415 -2.078829
-0.784710 0.655415 -2.072504
-0.617560 0.638700 -2.021808
-0.600845 0.638700 -2.015276
-0.383550 0.605270 -1.919285
-0.366835 0.605270 -1.912948
-0.199685 0.588555 -1.861893
-0.032535 0.571840 -1.810250
-0.015820 0.571840 -1.804329
0.134615 0.555125 -1.758937
0.151330 0.555125 -1.752583
0.301765 0.538410 -1.707705
0.318480 0.538410 -1.702139
0.485630 0.521695 -1.650605
0.585920 0.521695 -1.651577
0.602635 0.521695 -1.645219
0.753070 0.504980 -1.600272
0.769785 0.504980 -1.594194
0.936935 0.488265 -1.543117
-1.353020 0.705560 -2.250882
-1.336305 0.705560 -2.244531
-1.169155 0.688845 -2.193185
-1.152440 0.688845 -2.187522
-1.002005 0.672130 -2.142424
-0.985290 0.672130 -2.135944
-0.834855 0.655415 -2.091101
-0.818140 0.655415 -2.084948
-0.650990 0.638700 -2.033799
-0.634275 0.638700 -2.027708
-0.400265 0.605270 -1.925581
-0.233115 0.588555 -1.874046
-0.216400 0.588555 -1.868575
-0.065965 0.571840 -1.823158
-0.049250 0.571840 -1.817335
0.101185 0.555125 -1.771475
0.117900 0.555125 -1.765233
0.285050 0.538410 -1.714471
0.452200 0.521695 -1.663488
0.468915 0.521695 -1.657169
0.736355 0.504980 -1.606279
0.903505 0.488265 -1.555156
0.920220 0.488265 -1.549033
-1.369735 0.705560 -2.257273
-1.202585 0.688845 -2.206085
-1.185870 0.688845 -2.199823
-1.035435 0.672130 -2.155014
-1.018720 0.672130 -2.148390
-0.868285 0.655415 -2.104036
-0.851570 0.655415 -2.097206
-0.684420 0.638700 -2.046369
-0.667705 0.638700 -2.039928
-0.433695 0.605270 -1.938060
-0.416980 0.605270 -1.931841
-0.266545 0.588555 -1.887187
-0.249830 0.588555 -1.880639
-0.099395 0.571840 -1.835867
-0.082680 0.571840 -1.828937
0.084470 0.555125 -1.777659
0.251620 0.538410 -1.726556
0.268335 0.538410 -1.720881
0.435485 0.521695 -1.669422
0.552490 0.504980 -1.616575
0.702925 0.504980 -1.619083
0.719640 0.504980 -1.612306
0.886790 0.488265 -1.561763
-1.252730 0.688845 -2.224198
-1.236015 0.688845 -2.218455
-1.219300 0.688845 -2.211907
-1.068865 0.672130 -2.167214
-1.052150 0.672130 -2.160712
-0.901715 0.655415 -2.115862
-0.885000 0.655415 -2.109963
-0.717850 0.638700 -2.058378
-0.701135 0.638700 -2.052180
-0.517270 0.605270 -1.949258
-0.500555 0.605270 -1.948901
-0.467125 0.605270 -1.950389
-0.450410 0.605270 -1.944243
-0.299975 0.588555 -1.899006
-0.283260 0.588555 -1.892836
-0.116110 0.571840 -1.841553
0.051040 0.555125 -1.790833
0.067755 0.555125 -1.783793
0.234905 0.538410 -1.733157
0.402055 0.521695 -1.681603
0.418770 0.521695 -1.675290
0.519060 0.504980 -1.628960
0.535775 0.504980 -1.623379
0.669495 0.504980 -1.630935
0.686210 0.504980 -1.625201
0.853360 0.488265 -1.574242
0.870075 0.488265 -1.568046
-1.286160 0.688845 -2.236840
-1.269445 0.688845 -2.230669
-1.102295 0.672130 -2.179826
-1.085580 0.672130 -2.173127
-0.935145 0.655415 -2.128699
-0.918430 0.655415 -2.122134
-0.751280 0.638700 -2.071075
-0.734565 0.638700 -2.064750
-0.584130 0.621985 -2.020007
-0.550700 0.605270 -1.961792
-0.533985 0.605270 -1.955728
-0.483840 0.605270 -1.956602
-0.333405 0.588555 -1.911811
-0.316690 0.588555 -1.905429
-0.149540 0.571840 -1.853984
-0.132825 0.571840 -1.848384
0.017610 0.555125 -1.803107
0.034325 0.555125 -1.797131
0.201475 0.538410 -1.745456
0.218190 0.538410 -1.739672
0.368625 0.521695 -1.694088
0.385340 0.521695 -1.688186
0.652780 0.504980 -1.637362
0.819930 0.488265 -1.585944
0.836645 0.488265 -1.579668
-1.319590 0.688845 -2.249164
-1.302875 0.688845 -2.243277
-1.152440 0.672130 -2.198394
-1.135725 0.672130 -2.192061
-1.119010 0.672130 -2.185680
-0.968575 0.655415 -2.140609
-0.951860 0.655415 -2.134501
-0.784710 0.638700 -2.083579
-0.767995 0.638700 -2.077351
-0.617560 0.621985 -2.032542
-0.600845 0.621985 -2.026201
-0.366835 0.588555 -1.924452
-0.350120 0.588555 -1.918151
-0.182970 0.571840 -1.866237
-0.166255 0.571840 -1.860720
-0.015820 0.555125 -1.815086
0.000895 0.555125 -1.809033
0.168045 0.538410 -1.757669
0.184760 0.538410 -1.751308
0.335195 0.521695 -1.706358
0.351910 0.521695 -1.700800
0.502345 0.504980 -1.647113
0.619350 0.504980 -1.650120
0.636065 0.504980 -1.643505
0.803215 0.488265 -1.592141
-1.353020 0.688845 -2.261928
-1.336305 0.688845 -2.255567
-1.185870 0.672130 -2.210773
-1.169155 0.672130 -2.204203
-1.002005 0.655415 -2.153026
-0.985290 0.655415 -2.147144
-0.834855 0.638700 -2.101985
-0.818140 0.638700 -2.095982
-0.801425 0.638700 -2.089761
-0.650990 0.621985 -2.044892
-0.634275 0.621985 -2.038475
-0.400265 0.588555 -1.936928
-0.383550 0.588555 -1.930714
-0.216400 0.571840 -1.879480
-0.199685 0.571840 -1.872881
-0.032535 0.555125 -1.821953
0.134615 0.538410 -1.770220
