ply
format ascii 1.0
element vertex 1650
property float x
property float y
property float z
end_header
-0.517270 0.471550 -2.038548
-0.483840 0.471550 -2.044349
-0.049250 0.438120 -1.905669
-0.015820 0.438120 -1.893867
0.418770 0.404690 -1.753866
0.953650 0.371260 -1.612682
-0.885000 0.504980 -2.208141
-0.082680 0.438120 -1.918320
0.385340 0.404690 -1.766414
0.920220 0.371260 -1.625457
-0.951860 0.504980 -2.232908
-0.918430 0.504980 -2.220608
-0.116110 0.438120 -1.930815
0.318480 0.404690 -1.790862
0.351910 0.404690 -1.778742
0.886790 0.371260 -1.637706
-0.985290 0.504980 -2.245146
-0.182970 0.438120 -1.956034
-0.149540 0.438120 -1.943161
0.285050 0.404690 -1.803781
0.853360 0.371260 -1.650455
-1.052150 0.504980 -2.269964
-1.018720 0.504980 -2.257605
-0.584130 0.471550 -2.118147
-0.216400 0.438120 -1.968521
0.251620 0.404690 -1.815720
0.819930 0.371260 -1.662932
-1.119010 0.504980 -2.294916
-1.085580 0.504980 -2.282440
-0.650990 0.471550 -2.142923
-0.617560 0.471550 -2.130587
-0.249830 0.438120 -1.980859
0.218190 0.404690 -1.828455
0.753070 0.371260 -1.687132
0.786500 0.371260 -1.675153
-1.152440 0.504980 -2.307244
-0.684420 0.471550 -2.155340
-0.350120 0.438120 -2.004447
-0.316690 0.438120 -1.997306
-0.283260 0.438120 -1.992810
0.151330 0.404690 -1.853359
0.184760 0.404690 -1.840999
0.719640 0.371260 -1.699932
-1.219300 0.504980 -2.332405
-1.185870 0.504980 -2.319517
-0.751280 0.471550 -2.180262
-0.717850 0.471550 -2.168271
-0.416980 0.438120 -2.023129
-0.383550 0.438120 -2.014494
0.117900 0.404690 -1.865544
0.552490 0.371260 -1.705968
0.686210 0.371260 -1.712492
-1.319590 0.471550 -2.183861
-1.286160 0.471550 -2.185762
-1.252730 0.471550 -2.191536
-0.784710 0.471550 -2.192556
-0.450410 0.438120 -2.035678
0.084470 0.404690 -1.878716
0.519060 0.371260 -1.717969
0.652780 0.371260 -1.724791
-0.851570 0.471550 -2.217700
-0.818140 0.471550 -2.205038
-0.517270 0.438120 -2.060951
-0.483840 0.438120 -2.048108
0.017610 0.404690 -1.903397
0.051040 0.404690 -1.890565
0.619350 0.371260 -1.736843
-0.885000 0.471550 -2.230151
-0.550700 0.438120 -2.073022
-0.015820 0.404690 -1.916064
0.485630 0.371260 -1.751093
0.585920 0.371260 -1.749815
-0.951860 0.471550 -2.254392
-0.918430 0.471550 -2.242350
-0.049250 0.404690 -1.928472
0.418770 0.371260 -1.776263
0.452200 0.371260 -1.763910
-1.018720 0.471550 -2.279824
-0.985290 0.471550 -2.267229
-0.149540 0.404690 -1.951732
-0.116110 0.404690 -1.945923
-0.082680 0.404690 -1.940808
0.385340 0.371260 -1.788407
0.987080 0.337830 -1.622353
-1.052150 0.471550 -2.291963
-0.216400 0.404690 -1.970513
-0.182970 0.404690 -1.962693
0.351910 0.371260 -1.800353
0.920220 0.337830 -1.646976
0.953650 0.337830 -1.635408
-1.119010 0.471550 -2.317011
-1.085580 0.471550 -2.304017
-0.617560 0.438120 -2.152529
-0.584130 0.438120 -2.139841
-0.249830 0.404690 -1.983000
0.285050 0.371260 -1.826070
0.318480 0.371260 -1.813313
0.886790 0.337830 -1.659602
-1.185870 0.471550 -2.341471
-1.152440 0.471550 -2.329159
-0.684420 0.438120 -2.177090
-0.650990 0.438120 -2.165146
-0.316690 0.404690 -2.007982
-0.283260 0.404690 -1.995092
0.251620 0.371260 -1.838634
0.853360 0.337830 -1.671963
-1.319590 0.438120 -2.199886
-1.219300 0.471550 -2.353876
-0.717850 0.438120 -2.189999
-0.383550 0.404690 -2.033081
-0.350120 0.404690 -2.020514
0.184760 0.371260 -1.863219
0.218190 0.371260 -1.851015
0.786500 0.337830 -1.697207
0.819930 0.337830 -1.684328
-1.286160 0.438120 -2.203228
-1.252730 0.438120 -2.213563
-0.784710 0.438120 -2.214428
-0.751280 0.438120 -2.202305
-0.416980 0.404690 -2.045407
0.151330 0.371260 -1.875413
0.753070 0.337830 -1.709803
-0.851570 0.438120 -2.239509
-0.818140 0.438120 -2.227019
0.051040 0.371260 -1.899392
0.084470 0.371260 -1.893902
0.117900 0.371260 -1.888275
0.552490 0.337830 -1.728463
0.719640 0.337830 -1.722136
-0.918430 0.438120 -2.264195
-0.885000 0.438120 -2.251732
-0.015820 0.371260 -1.918462
0.017610 0.371260 -1.909398
0.519060 0.337830 -1.740535
0.652780 0.337830 -1.746164
0.686210 0.337830 -1.734221
-0.951860 0.438120 -2.276420
-0.450410 0.404690 -2.112185
-0.049250 0.371260 -1.930499
0.619350 0.337830 -1.758979
-1.018720 0.438120 -2.301445
-0.985290 0.438120 -2.289008
-0.483840 0.404690 -2.124551
-0.116110 0.371260 -1.955308
-0.082680 0.371260 -1.943231
0.485630 0.337830 -1.773193
0.585920 0.337830 -1.771650
-1.085580 0.438120 -2.325894
-1.052150 0.438120 -2.313740
-0.550700 0.404690 -2.149329
-0.517270 0.404690 -2.137306
-0.149540 0.371260 -1.967734
0.418770 0.337830 -1.797922
0.452200 0.337830 -1.785952
-1.152440 0.438120 -2.350717
-1.119010 0.438120 -2.338833
-0.617560 0.404690 -2.173943
-0.584130 0.404690 -2.162032
-0.216400 0.371260 -1.992900
-0.182970 0.371260 -1.980157
0.385340 0.337830 -1.810904
-1.219300 0.438120 -2.375919
-1.185870 0.438120 -2.363384
-0.684420 0.404690 -2.199442
-0.650990 0.404690 -2.186817
0.318480 0.337830 -1.835085
0.351910 0.337830 -1.822490
0.987080 0.304400 -1.644661
-1.319590 0.404690 -2.223864
-0.751280 0.404690 -2.223740
-0.717850 0.404690 -2.211673
0.251620 0.337830 -1.846912
0.285050 0.337830 -1.843102
0.920220 0.304400 -1.668719
0.953650 0.304400 -1.656225
-1.286160 0.404690 -2.227333
-1.252730 0.404690 -2.239788
-0.784710 0.404690 -2.236196
-0.249830 0.371260 -2.059796
0.184760 0.337830 -1.865332
0.218190 0.337830 -1.858644
0.886790 0.304400 -1.681560
-0.851570 0.404690 -2.261056
-0.818140 0.404690 -2.249026
-0.316690 0.371260 -2.084512
-0.283260 0.371260 -2.072140
0.117900 0.337830 -1.890074
0.151330 0.337830 -1.878356
0.819930 0.304400 -1.706002
0.853360 0.304400 -1.694241
-0.918430 0.404690 -2.286105
-0.885000 0.404690 -2.273855
-0.350120 0.371260 -2.096791
0.051040 0.337830 -1.915305
0.084470 0.337830 -1.902769
0.786500 0.304400 -1.718786
-0.985290 0.404690 -2.311026
-0.951860 0.404690 -2.298098
-0.416980 0.371260 -2.121625
-0.383550 0.371260 -2.109242
0.017610 0.337830 -1.927689
0.719640 0.304400 -1.743476
0.753070 0.304400 -1.731339
-1.052150 0.404690 -2.335606
-1.018720 0.404690 -2.323538
-0.483840 0.371260 -2.146958
-0.450410 0.371260 -2.133944
-0.015820 0.337830 -1.940013
0.519060 0.304400 -1.762550
0.552490 0.304400 -1.750140
0.686210 0.304400 -1.756414
-1.152440 0.404690 -2.372844
-1.119010 0.404690 -2.360258
-1.085580 0.404690 -2.348273
-0.550700 0.371260 -2.171504
-0.517270 0.371260 -2.158942
0.619350 0.304400 -1.780644
0.652780 0.304400 -1.767846
-1.219300 0.404690 -2.397629
-1.185870 0.404690 -2.385298
-0.617560 0.371260 -2.196388
-0.584130 0.371260 -2.183659
0.452200 0.304400 -1.794669
0.485630 0.304400 -1.791817
0.585920 0.304400 -1.793362
-0.684420 0.371260 -2.220795
-0.650990 0.371260 -2.208964
-0.082680 0.337830 -2.019332
-0.049250 0.337830 -2.007024
0.351910 0.304400 -1.825154
0.385340 0.304400 -1.812549
0.418770 0.304400 -1.806455
-1.353020 0.371260 -2.246174
-1.319590 0.371260 -2.250285
-0.751280 0.371260 -2.245683
-0.717850 0.371260 -2.233178
-0.149540 0.337830 -2.044288
-0.116110 0.337830 -2.031925
0.318480 0.304400 -1.837572
-1.286160 0.371260 -2.254057
-1.252730 0.371260 -2.266287
-0.818140 0.371260 -2.270643
-0.784710 0.371260 -2.258419
-0.216400 0.337830 -2.068962
-0.182970 0.337830 -2.056948
0.251620 0.304400 -1.863034
0.285050 0.304400 -1.849814
-0.885000 0.371260 -2.295576
-0.851570 0.371260 -2.283026
-0.283260 0.337830 -2.093910
-0.249830 0.337830 -2.081610
0.184760 0.304400 -1.887810
0.218190 0.304400 -1.874933
0.953650 0.270970 -1.678790
0.987080 0.270970 -1.666245
-0.985290 0.371260 -2.332359
-0.951860 0.371260 -2.320238
-0.918430 0.371260 -2.307979
-0.350120 0.337830 -2.118613
-0.316690 0.337830 -2.106321
0.886790 0.270970 -1.703109
0.920220 0.270970 -1.691223
-1.052150 0.371260 -2.357117
-1.018720 0.371260 -2.345264
-0.416980 0.337830 -2.143766
-0.383550 0.337830 -2.130789
0.853360 0.270970 -1.715487
-1.119010 0.371260 -2.382258
-1.085580 0.371260 -2.369753
-0.483840 0.337830 -2.168691
-0.450410 0.337830 -2.155877
0.151330 0.304400 -1.954299
0.786500 0.270970 -1.740879
0.819930 0.270970 -1.728384
-1.219300 0.371260 -2.419845
-1.185870 0.371260 -2.406889
-1.152440 0.371260 -2.394635
-0.550700 0.337830 -2.193218
-0.517270 0.337830 -2.180525
0.084470 0.304400 -1.979645
0.117900 0.304400 -1.966761
0.719640 0.270970 -1.765307
0.753070 0.270970 -1.752565
-0.650990 0.337830 -2.230405
-0.617560 0.337830 -2.217958
-0.584130 0.337830 -2.205808
0.017610 0.304400 -2.004307
0.051040 0.304400 -1.991607
0.519060 0.270970 -1.785534
0.552490 0.270970 -1.772302
0.686210 0.270970 -1.777819
-0.717850 0.337830 -2.255174
-0.684420 0.337830 -2.242683
-0.049250 0.304400 -2.028957
-0.015820 0.304400 -2.016346
0.452200 0.270970 -1.810171
0.485630 0.270970 -1.797349
0.619350 0.270970 -1.802204
0.652780 0.270970 -1.790115
-1.353020 0.337830 -2.265202
-1.319590 0.337830 -2.268641
-1.286160 0.337830 -2.272217
-1.252730 0.337830 -2.283278
-0.784710 0.337830 -2.280327
-0.751280 0.337830 -2.267722
-0.116110 0.304400 -2.053733
-0.082680 0.304400 -2.041409
0.385340 0.270970 -1.835236
0.418770 0.270970 -1.822796
0.585920 0.270970 -1.815316
-0.885000 0.337830 -2.316920
-0.851570 0.337830 -2.304603
-0.818140 0.337830 -2.292258
-0.182970 0.304400 -2.078557
-0.149540 0.304400 -2.065936
-0.951860 0.337830 -2.342054
-0.918430 0.337830 -2.329575
-0.283260 0.304400 -2.115682
-0.249830 0.304400 -2.103426
-0.216400 0.304400 -2.090976
-1.052150 0.337830 -2.379200
-1.018720 0.337830 -2.366643
-0.985290 0.337830 -2.354711
-0.350120 0.304400 -2.140427
-0.316690 0.304400 -2.128062
0.351910 0.270970 -1.901740
-1.119010 0.337830 -2.403927
-1.085580 0.337830 -2.391625
-0.416980 0.304400 -2.165584
-0.383550 0.304400 -2.152836
0.285050 0.270970 -1.927035
0.318480 0.270970 -1.914559
0.987080 0.237540 -1.688154
-1.219300 0.337830 -2.441004
-1.185870 0.337830 -2.429061
-1.152440 0.337830 -2.416192
-0.517270 0.304400 -2.202629
-0.483840 0.304400 -2.190073
-0.450410 0.304400 -2.177514
0.218190 0.270970 -1.951625
0.251620 0.270970 -1.939009
0.920220 0.237540 -1.712823
0.953650 0.237540 -1.700370
-0.584130 0.304400 -2.227438
-0.550700 0.304400 -2.215082
0.117900 0.270970 -1.988680
0.151330 0.270970 -1.976337
0.184760 0.270970 -1.964271
0.853360 0.237540 -1.737346
0.886790 0.237540 -1.725022
-0.684420 0.304400 -2.264970
-0.650990 0.304400 -2.252127
-0.617560 0.304400 -2.239805
0.051040 0.270970 -2.013762
0.084470 0.270970 -2.001162
0.786500 0.237540 -1.762766
0.819930 0.237540 -1.749995
-1.353020 0.304400 -2.281934
-1.319590 0.304400 -2.285538
-1.286160 0.304400 -2.288847
-0.751280 0.304400 -2.289635
-0.717850 0.304400 -2.276971
-0.015820 0.270970 -2.038580
0.017610 0.270970 -2.025759
0.719640 0.237540 -1.787627
0.753070 0.237540 -1.775003
-1.252730 0.304400 -2.299489
-0.851570 0.304400 -2.326738
-0.818140 0.304400 -2.314435
-0.784710 0.304400 -2.302148
-0.116110 0.270970 -2.075661
-0.082680 0.270970 -2.063182
-0.049250 0.270970 -2.050472
0.652780 0.237540 -1.811656
0.686210 0.237540 -1.799741
-0.951860 0.304400 -2.363519
-0.918430 0.304400 -2.351698
-0.885000 0.304400 -2.338826
-0.182970 0.270970 -2.100555
-0.149540 0.270970 -2.087933
0.585920 0.237540 -1.837328
0.619350 0.237540 -1.824593
-1.052150 0.304400 -2.400949
-1.018720 0.304400 -2.388599
-0.985290 0.304400 -2.376124
-0.283260 0.270970 -2.137937
-0.249830 0.270970 -2.124876
-0.216400 0.270970 -2.112773
0.485630 0.237540 -1.874417
0.519060 0.237540 -1.862231
0.552490 0.237540 -1.849388
-1.152440 0.304400 -2.438164
-1.119010 0.304400 -2.426163
-1.085580 0.304400 -2.413428
-0.350120 0.270970 -2.162431
-0.316690 0.270970 -2.149818
0.418770 0.237540 -1.899136
0.452200 0.237540 -1.886434
-1.219300 0.304400 -2.463234
-1.185870 0.304400 -2.450924
-0.450410 0.270970 -2.199482
-0.416980 0.270970 -2.187096
-0.383550 0.270970 -2.174438
0.351910 0.237540 -1.923817
0.385340 0.237540 -1.911137
-0.550700 0.270970 -2.237198
-0.517270 0.270970 -2.224268
-0.483840 0.270970 -2.212043
0.251620 0.237540 -1.960941
0.285050 0.237540 -1.948713
0.318480 0.237540 -1.936342
-0.650990 0.270970 -2.274391
-0.617560 0.270970 -2.261652
-0.584130 0.270970 -2.249434
0.184760 0.237540 -1.985745
0.218190 0.237540 -1.973362
0.987080 0.204110 -1.710157
1.020510 0.204110 -1.697667
-1.386450 0.270970 -2.288333
-1.353020 0.270970 -2.292015
-1.319590 0.270970 -2.295527
-1.286160 0.270970 -2.298611
-1.252730 0.270970 -2.308476
-0.751280 0.270970 -2.311159
-0.717850 0.270970 -2.298734
-0.684420 0.270970 -2.286496
0.084470 0.237540 -2.023158
0.117900 0.237540 -2.010667
0.151330 0.237540 -1.997983
0.920220 0.204110 -1.734377
0.953650 0.204110 -1.722388
-0.851570 0.270970 -2.348507
-0.818140 0.270970 -2.336174
-0.784710 0.270970 -2.323438
0.051040 0.237540 -2.035107
0.853360 0.204110 -1.759465
0.886790 0.204110 -1.747206
-0.951860 0.270970 -2.385558
-0.918430 0.270970 -2.373032
-0.885000 0.270970 -2.361279
-0.082680 0.204110 -1.796145
0.017610 0.204110 -1.777355
0.753070 0.204110 -1.796783
0.786500 0.204110 -1.783893
0.819930 0.204110 -1.771533
-1.052150 0.270970 -2.423087
-1.018720 0.270970 -2.410304
-0.985290 0.270970 -2.397955
-0.182970 0.237540 -2.121996
-0.149540 0.237540 -2.109888
-0.049250 0.204110 -1.813029
-0.015820 0.204110 -1.804204
0.686210 0.204110 -1.820974
0.719640 0.204110 -1.809215
-1.185870 0.270970 -2.472495
-1.152440 0.270970 -2.459917
-1.119010 0.270970 -2.447559
-1.085580 0.270970 -2.435308
-0.283260 0.237540 -2.159622
-0.249830 0.237540 -2.147009
-0.216400 0.237540 -2.134601
0.585920 0.204110 -1.858699
0.619350 0.204110 -1.846308
0.652780 0.204110 -1.833734
-1.219300 0.270970 -2.484960
-0.383550 0.237540 -2.196520
-0.350120 0.237540 -2.184120
-0.316690 0.237540 -2.172258
0.485630 0.204110 -1.895993
0.519060 0.204110 -1.883947
0.552490 0.204110 -1.870912
-0.517270 0.237540 -2.246344
-0.483840 0.237540 -2.233774
-0.450410 0.237540 -2.221608
-0.416980 0.237540 -2.209281
0.418770 0.204110 -1.920418
0.452200 0.204110 -1.908854
-0.617560 0.237540 -2.283620
-0.584130 0.237540 -2.271228
-0.550700 0.237540 -2.258857
0.318480 0.204110 -1.957713
0.351910 0.204110 -1.945360
0.385340 0.204110 -1.932966
-1.386450 0.237540 -2.298237
-1.353020 0.237540 -2.301485
-1.319590 0.237540 -2.305000
-1.286160 0.237540 -2.308000
-1.252730 0.237540 -2.316600
-0.717850 0.237540 -2.321052
-0.684420 0.237540 -2.308585
-0.650990 0.237540 -2.295906
0.218190 0.204110 -1.995495
0.251620 0.204110 -1.982787
0.285050 0.204110 -1.970322
-0.851570 0.237540 -2.369925
-0.818140 0.237540 -2.358135
-0.784710 0.237540 -2.345295
-0.751280 0.237540 -2.333242
0.117900 0.204110 -2.032608
0.151330 0.204110 -2.020077
0.184760 0.204110 -2.007549
-0.985290 0.237540 -2.420120
-0.951860 0.237540 -2.407265
-0.918430 0.237540 -2.394945
-0.885000 0.237540 -2.382499
0.051040 0.204110 -2.057301
0.084470 0.204110 -2.045015
0.987080 0.170680 -1.731772
1.020510 0.170680 -1.719251
-1.085580 0.237540 -2.457135
-1.052150 0.237540 -2.444834
-1.018720 0.237540 -2.432438
0.886790 0.170680 -1.769014
0.920220 0.170680 -1.756405
0.953650 0.170680 -1.743562
-1.219300 0.237540 -2.506731
-1.185870 0.237540 -2.494221
-1.152440 0.237540 -2.482262
-1.119010 0.237540 -2.469756
-0.216400 0.204110 -2.156615
-0.182970 0.204110 -2.143854
-0.149540 0.204110 -2.132039
0.786500 0.170680 -1.805704
0.819930 0.170680 -1.793576
0.853360 0.170680 -1.781401
-0.350120 0.204110 -2.206416
-0.316690 0.204110 -2.193536
-0.283260 0.204110 -2.181102
-0.249830 0.204110 -2.169131
0.017610 0.170680 -1.814979
0.686210 0.170680 -1.842908
0.719640 0.170680 -1.831336
0.753070 0.170680 -1.818546
-1.185870 0.204110 -2.239623
-0.450410 0.204110 -2.243101
-0.416980 0.204110 -2.231029
-0.383550 0.204110 -2.218868
0.585920 0.170680 -1.880639
0.619350 0.170680 -1.868575
0.652780 0.170680 -1.855898
-1.386450 0.204110 -2.302300
-0.584130 0.204110 -2.292794
-0.550700 0.204110 -2.280572
-0.517270 0.204110 -2.268222
-0.483840 0.204110 -2.256100
0.485630 0.170680 -1.918151
0.519060 0.170680 -1.905428
0.552490 0.170680 -1.892541
-1.353020 0.204110 -2.305000
-1.319590 0.204110 -2.308000
-1.286160 0.204110 -2.310354
-0.751280 0.204110 -2.354962
-0.717850 0.204110 -2.342646
-0.684420 0.204110 -2.329959
-0.650990 0.204110 -2.317716
-0.617560 0.204110 -2.305329
0.351910 0.170680 -1.967511
0.385340 0.170680 -1.955388
0.418770 0.170680 -1.942417
0.452200 0.170680 -1.930153
-0.885000 0.204110 -2.404288
-0.851570 0.204110 -2.391919
-0.818140 0.204110 -2.379425
-0.784710 0.204110 -2.367462
0.251620 0.170680 -2.004825
0.285050 0.170680 -1.992442
0.318480 0.170680 -1.979535
-1.018720 0.204110 -2.454339
-0.985290 0.204110 -2.441558
-0.951860 0.204110 -2.429553
-0.918430 0.204110 -2.416675
0.117900 0.170680 -2.054120
0.151330 0.170680 -2.041816
0.184760 0.170680 -2.029393
0.218190 0.170680 -2.016922
-1.152440 0.204110 -2.504063
-1.119010 0.204110 -2.491542
-1.085580 0.204110 -2.478909
-1.052150 0.204110 -2.466667
0.084470 0.170680 -2.066450
-1.252730 0.204110 -2.540971
-1.219300 0.204110 -2.528668
-1.185870 0.170680 -2.195272
-0.283260 0.170680 -2.203479
-0.249830 0.170680 -2.190931
-0.216400 0.170680 -2.178401
-0.182970 0.170680 -2.165957
-0.116110 0.137250 -1.777683
-0.082680 0.137250 -1.757858
-0.049250 0.137250 -1.748014
-0.015820 0.137250 -1.752379
0.017610 0.137250 -1.768437
0.920220 0.137250 -1.778908
0.953650 0.137250 -1.765626
0.987080 0.137250 -1.753858
1.020510 0.137250 -1.740984
-0.450410 0.170680 -2.264712
-0.416980 0.170680 -2.252796
-0.383550 0.170680 -2.240270
-0.350120 0.170680 -2.227849
-0.316690 0.170680 -2.215712
0.051040 0.137250 -1.798297
0.819930 0.137250 -1.815640
0.853360 0.137250 -1.803107
0.886790 0.137250 -1.791108
-1.386450 0.170680 -2.305000
-1.353020 0.170680 -2.308000
-1.319590 0.170680 -2.310354
-1.286160 0.170680 -2.313000
-0.617560 0.170680 -2.326808
-0.584130 0.170680 -2.314359
-0.550700 0.170680 -2.301914
-0.517270 0.170680 -2.290198
-0.483840 0.170680 -2.277530
0.686210 0.137250 -1.865068
0.719640 0.137250 -1.852805
0.753070 0.137250 -1.840364
0.786500 0.137250 -1.827737
-0.784710 0.170680 -2.388878
-0.751280 0.170680 -2.376643
-0.717850 0.170680 -2.364576
-0.684420 0.170680 -2.351767
-0.650990 0.170680 -2.339747
0.552490 0.137250 -1.914749
0.585920 0.137250 -1.902001
0.619350 0.137250 -1.890238
0.652780 0.137250 -1.877160
-0.951860 0.170680 -2.451483
-0.918430 0.170680 -2.438703
0.418770 0.137250 -1.964199
0.452200 0.137250 -1.952055
0.485630 0.137250 -1.939769
0.519060 0.137250 -1.927336
-1.119010 0.170680 -2.513070
-1.085580 0.170680 -2.500801
-1.052150 0.170680 -2.488427
-1.018720 0.170680 -2.475944
-0.985290 0.170680 -2.463460
0.251620 0.137250 -2.026177
0.285050 0.137250 -2.013812
0.318480 0.137250 -2.001977
0.351910 0.137250 -1.989171
0.385340 0.137250 -1.977303
-1.252730 0.170680 -2.562851
-1.219300 0.170680 -2.550439
-1.152440 0.170680 -2.525247
0.117900 0.137250 -2.076059
0.151330 0.137250 -2.063756
0.184760 0.137250 -2.051160
0.218190 0.137250 -2.038785
-1.185870 0.137250 -2.157515
-1.152440 0.137250 -2.166356
-0.249830 0.137250 -2.212429
-0.216400 0.137250 -2.200389
-0.851570 0.137250 -2.271546
-0.818140 0.137250 -2.271546
-0.784710 0.137250 -2.271546
-0.751280 0.137250 -2.271546
-0.717850 0.137250 -2.271546
-0.684420 0.137250 -2.271546
-0.650990 0.137250 -2.271546
-0.450410 0.137250 -2.286790
-0.416980 0.137250 -2.274934
-0.383550 0.137250 -2.261973
-0.350120 0.137250 -2.249818
-0.316690 0.137250 -2.237501
-0.283260 0.137250 -2.224905
-1.386450 0.137250 -2.302791
-1.353020 0.137250 -2.305000
-1.319590 0.137250 -2.307233
-1.286160 0.137250 -2.309074
-1.219300 0.137250 -2.344386
-0.584130 0.137250 -2.336483
-0.550700 0.137250 -2.324274
-0.517270 0.137250 -2.311924
-0.483840 0.137250 -2.299428
-0.116110 0.103820 -1.754078
-0.082680 0.103820 -1.737236
-0.049250 0.103820 -1.731942
-0.015820 0.103820 -1.734558
0.017610 0.103820 -1.745323
0.051040 0.103820 -1.770739
0.987080 0.103820 -1.775164
1.020510 0.103820 -1.762710
1.053940 0.103820 -1.750733
-0.149540 0.103820 -1.787505
0.819930 0.103820 -1.837233
0.853360 0.103820 -1.825336
0.886790 0.103820 -1.812490
0.920220 0.103820 -1.800385
0.953650 0.103820 -1.787403
-1.085580 0.137250 -2.522600
-1.052150 0.137250 -2.510274
-1.018720 0.137250 -2.497839
-0.985290 0.137250 -2.485295
0.619350 0.103820 -1.911824
0.652780 0.103820 -1.899716
0.686210 0.103820 -1.886784
0.719640 0.103820 -1.874838
0.753070 0.103820 -1.862728
0.786500 0.103820 -1.849522
-1.252730 0.137250 -2.584432
-1.119010 0.137250 -2.534820
0.452200 0.103820 -1.974011
0.485630 0.103820 -1.961456
0.519060 0.103820 -1.948720
0.552490 0.103820 -1.936413
0.585920 0.103820 -1.923956
0.251620 0.103820 -2.048705
0.285050 0.103820 -2.036199
0.318480 0.103820 -2.023565
0.351910 0.103820 -2.011055
0.385340 0.103820 -1.998744
0.418770 0.103820 -1.985959
-1.185870 0.103820 -2.124123
-1.152440 0.103820 -2.121353
0.117900 0.103820 -2.098035
0.151330 0.103820 -2.085496
0.184760 0.103820 -2.073128
0.218190 0.103820 -2.060943
-0.851570 0.103820 -2.220338
-0.818140 0.103820 -2.220338
-0.784710 0.103820 -2.220338
-0.751280 0.103820 -2.220338
-0.717850 0.103820 -2.220338
-0.684420 0.103820 -2.220338
-0.650990 0.103820 -2.220338
-0.617560 0.103820 -2.220338
-0.584130 0.103820 -2.220338
-0.550700 0.103820 -2.220338
-0.517270 0.103820 -2.220338
-0.483840 0.103820 -2.220338
-0.216400 0.103820 -2.222166
-1.386450 0.103820 -2.299206
-1.353020 0.103820 -2.301186
-1.319590 0.103820 -2.303784
-0.383550 0.103820 -2.284220
-0.350120 0.103820 -2.271359
-0.316690 0.103820 -2.259214
-0.283260 0.103820 -2.246855
-0.249830 0.103820 -2.234519
-1.219300 0.103820 -2.330285
-1.052150 0.103820 -2.532185
-1.286160 0.103820 -2.619021
-1.252730 0.103820 -2.606292
-1.119010 0.103820 -2.557049
-1.085580 0.103820 -2.544311
-0.149540 0.070390 -1.776115
-0.116110 0.070390 -1.745832
-0.082680 0.070390 -1.729596
-0.049250 0.070390 -1.723936
-0.015820 0.070390 -1.725912
0.017610 0.070390 -1.737641
0.051040 0.070390 -1.761610
0.987080 0.070390 -1.796989
1.020510 0.070390 -1.784930
1.053940 0.070390 -1.772666
0.084470 0.070390 -1.822205
0.753070 0.070390 -1.884480
0.786500 0.070390 -1.871355
0.819930 0.070390 -1.859217
0.853360 0.070390 -1.846906
0.886790 0.070390 -1.834413
0.920220 0.070390 -1.821732
0.953650 0.070390 -1.809966
0.452200 0.070390 -1.995491
0.485630 0.070390 -1.983574
0.519060 0.070390 -1.970717
0.552490 0.070390 -1.958676
0.585920 0.070390 -1.945950
0.619350 0.070390 -1.933486
0.652780 0.070390 -1.921702
0.686210 0.070390 -1.909075
0.719640 0.070390 -1.896286
-1.152440 0.070390 -2.085408
0.151330 0.070390 -2.107536
0.184760 0.070390 -2.094917
0.218190 0.070390 -2.082496
0.251620 0.070390 -2.069976
0.285050 0.070390 -2.057618
0.318480 0.070390 -2.045370
0.351910 0.070390 -2.032876
0.385340 0.070390 -2.020815
0.418770 0.070390 -2.008219
-0.885000 0.070390 -2.169213
-0.851570 0.070390 -2.169213
-0.818140 0.070390 -2.169213
-0.784710 0.070390 -2.169213
-0.751280 0.070390 -2.169213
-0.717850 0.070390 -2.169213
-0.684420 0.070390 -2.169213
-0.650990 0.070390 -2.169213
-0.617560 0.070390 -2.169213
-0.584130 0.070390 -2.169213
-0.550700 0.070390 -2.169213
-0.517270 0.070390 -2.169213
-0.483840 0.070390 -2.169213
-0.450410 0.070390 -2.169213
-0.416980 0.070390 -2.169213
-0.383550 0.070390 -2.169213
-0.350120 0.070390 -2.169213
-0.316690 0.070390 -2.169213
-0.283260 0.070390 -2.169213
-0.249830 0.070390 -2.169213
0.117900 0.070390 -2.119730
-1.386450 0.070390 -2.290633
-1.353020 0.070390 -2.292243
-1.319590 0.070390 -2.293612
-1.219300 0.070390 -2.315644
-1.286160 0.070390 -2.640466
-1.252730 0.070390 -2.628230
-1.185870 0.070390 -2.603487
-1.119010 0.070390 -2.578513
-1.085580 0.070390 -2.566528
-0.149540 0.036960 -1.784577
-0.116110 0.036960 -1.749439
-0.082680 0.036960 -1.731148
-0.049250 0.036960 -1.726000
-0.015820 0.036960 -1.728000
0.017610 0.036960 -1.739975
0.051040 0.036960 -1.767680
0.920220 0.036960 -1.843363
0.953650 0.036960 -1.831036
0.987080 0.036960 -1.819328
1.020510 0.036960 -1.806426
1.053940 0.036960 -1.794539
0.385340 0.036960 -2.042449
0.418770 0.036960 -2.030022
0.452200 0.036960 -2.017470
0.485630 0.036960 -2.004982
0.519060 0.036960 -1.993063
0.552490 0.036960 -1.980443
0.585920 0.036960 -1.967602
0.619350 0.036960 -1.955361
0.652780 0.036960 -1.943160
0.686210 0.036960 -1.930815
0.719640 0.036960 -1.918320
0.753070 0.036960 -1.905669
0.786500 0.036960 -1.893323
0.819930 0.036960 -1.881022
0.853360 0.036960 -1.869032
0.886790 0.036960 -1.855703
-1.386450 0.036960 -2.280021
-1.353020 0.036960 -2.282003
-1.152440 0.036960 -2.053871
-0.885000 0.036960 -2.117967
-0.851570 0.036960 -2.117967
-0.818140 0.036960 -2.117967
-0.784710 0.036960 -2.117967
-0.751280 0.036960 -2.117967
-0.717850 0.036960 -2.117967
-0.684420 0.036960 -2.117967
-0.650990 0.036960 -2.117967
-0.617560 0.036960 -2.117967
-0.584130 0.036960 -2.117967
-0.550700 0.036960 -2.117967
-0.517270 0.036960 -2.117967
-0.483840 0.036960 -2.117967
-0.450410 0.036960 -2.117967
-0.416980 0.036960 -2.117967
-0.383550 0.036960 -2.117967
-0.350120 0.036960 -2.117967
-0.316690 0.036960 -2.117967
-0.283260 0.036960 -2.117967
-0.249830 0.036960 -2.117967
-0.216400 0.036960 -2.117967
0.117900 0.036960 -2.141922
0.151330 0.036960 -2.129142
0.184760 0.036960 -2.116670
0.218190 0.036960 -2.104632
0.251620 0.036960 -2.092028
0.285050 0.036960 -2.079399
0.318480 0.036960 -2.066942
0.351910 0.036960 -2.054754
-1.319590 0.036960 -2.282999
-1.219300 0.036960 -2.299096
-1.286160 0.036960 -2.662243
-1.252730 0.036960 -2.650063
-1.185870 0.036960 -2.625666
-1.353020 0.003530 -2.263955
-1.319590 0.003530 -2.264637
-1.152440 0.003530 -2.026243
-1.219300 0.003530 -2.276160
-1.386450 0.003530 -2.717182
-1.286160 0.003530 -2.684330
-1.252730 0.003530 -2.672109
-0.918430 0.003530 -2.066378
-0.885000 0.003530 -2.066378
-0.851570 0.003530 -2.066378
-0.818140 0.003530 -2.066378
-0.784710 0.003530 -2.066378
-0.751280 0.003530 -2.066378
-0.717850 0.003530 -2.066378
-0.684420 0.003530 -2.066378
-0.650990 0.003530 -2.066378
-0.617560 0.003530 -2.066378
-0.584130 0.003530 -2.066378
-0.550700 0.003530 -2.066378
-0.517270 0.003530 -2.066378
-0.483840 0.003530 -2.066378
-0.450410 0.003530 -2.066378
-0.416980 0.003530 -2.066378
-0.383550 0.003530 -2.066378
-0.350120 0.003530 -2.066378
-0.316690 0.003530 -2.066378
-0.283260 0.003530 -2.066378
-0.249830 0.003530 -2.066378
-0.216400 0.003530 -2.066378
-0.182970 0.003530 -2.066378
-0.149540 0.003530 -1.822653
-0.116110 0.003530 -1.768667
-0.082680 0.003530 -1.746233
-0.049250 0.003530 -1.739869
-0.015820 0.003530 -1.742606
0.017610 0.003530 -1.756305
0.051040 0.003530 -1.794047
0.084470 0.003530 -2.066378
0.117900 0.003530 -2.066378
0.184760 0.003530 -2.138551
0.218190 0.003530 -2.126516
0.251620 0.003530 -2.113876
0.285050 0.003530 -2.101128
0.318480 0.003530 -2.089158
0.351910 0.003530 -2.076340
0.385340 0.003530 -2.064190
0.418770 0.003530 -2.051898
0.452200 0.003530 -2.039358
0.485630 0.003530 -2.026883
0.519060 0.003530 -2.014631
0.552490 0.003530 -2.002364
0.585920 0.003530 -1.989979
0.619350 0.003530 -1.977168
0.652780 0.003530 -1.965226
0.686210 0.003530 -1.952045
0.719640 0.003530 -1.939822
0.753070 0.003530 -1.927455
0.786500 0.003530 -1.914936
0.819930 0.003530 -1.902857
0.853360 0.003530 -1.890564
0.886790 0.003530 -1.877596
0.920220 0.003530 -1.865544
0.953650 0.003530 -1.853359
0.987080 0.003530 -1.840999
1.020510 0.003530 -1.828455
1.053940 0.003530 -1.815720
1.087370 0.003530 -1.803998
-1.386450 -0.029900 -2.710534
-1.353020 -0.029900 -2.698126
-1.319590 -0.029900 -2.685727
-1.286160 -0.029900 -2.673596
-1.219300 -0.029900 -2.252968
-1.152440 -0.029900 -2.001313
-0.951860 -0.029900 -2.015557
-0.918430 -0.029900 -2.015557
-0.885000 -0.029900 -2.015557
-0.851570 -0.029900 -2.015557
-0.818140 -0.029900 -2.015557
-0.784710 -0.029900 -2.015557
-0.751280 -0.029900 -2.015557
-0.717850 -0.029900 -2.015557
-0.684420 -0.029900 -2.015557
-0.650990 -0.029900 -2.015557
-0.617560 -0.029900 -2.015557
-0.584130 -0.029900 -2.015557
-0.550700 -0.029900 -2.015557
-0.517270 -0.029900 -2.015557
-0.483840 -0.029900 -2.015557
-0.450410 -0.029900 -2.015557
-0.416980 -0.029900 -2.015557
-0.383550 -0.029900 -2.015557
-0.350120 -0.029900 -2.015557
-0.316690 -0.029900 -2.015557
-0.283260 -0.029900 -2.015557
-0.249830 -0.029900 -2.015557
-0.216400 -0.029900 -2.015557
-0.182970 -0.029900 -2.015557
0.084470 -0.029900 -2.015557
0.117900 -0.029900 -2.015557
0.151330 -0.029900 -2.015557
0.184760 -0.029900 -2.015557
0.218190 -0.029900 -2.015557
0.251620 -0.029900 -2.015557
0.285050 -0.029900 -2.015557
0.318480 -0.029900 -2.015557
0.418770 -0.029900 -2.073688
0.452200 -0.029900 -2.060836
0.485630 -0.029900 -2.048529
0.519060 -0.029900 -2.036301
0.552490 -0.029900 -2.023875
0.585920 -0.029900 -2.011484
0.619350 -0.029900 -1.999453
0.652780 -0.029900 -1.986809
0.686210 -0.029900 -1.974383
0.719640 -0.029900 -1.961930
0.753070 -0.029900 -1.949833
0.786500 -0.029900 -1.937154
0.819930 -0.029900 -1.925094
0.853360 -0.029900 -1.912679
0.886790 -0.029900 -1.899987
0.920220 -0.029900 -1.887130
0.953650 -0.029900 -1.875255
0.987080 -0.029900 -1.863219
1.020510 -0.029900 -1.849842
-0.116110 -0.029900 -1.809813
-0.082680 -0.029900 -1.780042
-0.049250 -0.029900 -1.771088
-0.015820 -0.029900 -1.775029
0.017610 -0.029900 -1.793234
1.053940 -0.029900 -1.837452
1.087370 -0.029900 -1.825741
-1.419880 -0.063330 -2.744720
-1.386450 -0.063330 -2.732356
-1.353020 -0.063330 -2.719934
-1.319590 -0.063330 -2.707807
-1.219300 -0.063330 -2.223200
0.585920 -0.063330 -2.033107
0.619350 -0.063330 -2.021142
-1.152440 -0.063330 -1.985080
-1.119010 -0.063330 -1.988764
-0.951860 -0.063330 -1.964446
-0.918430 -0.063330 -1.964446
-0.885000 -0.063330 -1.964446
-0.851570 -0.063330 -1.964446
-0.818140 -0.063330 -1.964446
-0.784710 -0.063330 -1.964446
-0.751280 -0.063330 -1.964446
-0.717850 -0.063330 -1.964446
-0.684420 -0.063330 -1.964446
-0.650990 -0.063330 -1.964446
-0.617560 -0.063330 -1.964446
-0.584130 -0.063330 -1.964446
-0.550700 -0.063330 -1.964446
-0.517270 -0.063330 -1.964446
-0.483840 -0.063330 -1.964446
-0.450410 -0.063330 -1.964446
-0.416980 -0.063330 -1.964446
-0.383550 -0.063330 -1.964446
-0.350120 -0.063330 -1.964446
-0.316690 -0.063330 -1.964446
-0.283260 -0.063330 -1.964446
-0.249830 -0.063330 -1.964446
-0.216400 -0.063330 -1.964446
-0.182970 -0.063330 -1.964446
-0.149540 -0.063330 -1.964446
0.051040 -0.063330 -1.964446
0.084470 -0.063330 -1.964446
0.117900 -0.063330 -1.964446
0.151330 -0.063330 -1.964446
0.184760 -0.063330 -1.964446
0.218190 -0.063330 -1.964446
0.251620 -0.063330 -1.964446
0.285050 -0.063330 -1.964446
0.318480 -0.063330 -1.964446
0.351910 -0.063330 -1.964446
0.385340 -0.063330 -1.964446
0.418770 -0.063330 -1.964446
0.452200 -0.063330 -1.964446
0.485630 -0.063330 -1.964446
0.519060 -0.063330 -1.964446
0.652780 -0.063330 -2.008911
0.686210 -0.063330 -1.996349
0.719640 -0.063330 -1.983585
0.753070 -0.063330 -1.971686
0.786500 -0.063330 -1.958633
0.819930 -0.063330 -1.946515
0.853360 -0.063330 -1.934257
0.886790 -0.063330 -1.921851
0.920220 -0.063330 -1.909294
-1.419880 -0.096760 -2.766377
-1.386450 -0.096760 -2.754269
-0.082680 -0.063330 -1.832272
-0.049250 -0.063330 -1.817942
-0.015820 -0.063330 -1.823349
0.953650 -0.063330 -1.896577
0.987080 -0.063330 -1.884839
1.020510 -0.063330 -1.871792
1.053940 -0.063330 -1.859729
1.087370 -0.063330 -1.847495
-1.319590 -0.096760 -2.179987
-1.286160 -0.096760 -2.178930
-1.453310 -0.130190 -2.775090
-1.419880 -0.130190 -2.775090
-1.386450 -0.130190 -2.774603
-1.152440 -0.096760 -1.974590
-1.119010 -0.096760 -1.974799
-0.951860 -0.096760 -1.970149
-0.918430 -0.096760 -1.957883
-0.885000 -0.096760 -1.945478
-0.851570 -0.096760 -1.933106
-0.818140 -0.096760 -1.920984
0.786500 -0.096760 -1.980456
0.819930 -0.096760 -1.968429
0.853360 -0.096760 -1.955853
0.886790 -0.096760 -1.943196
0.920220 -0.096760 -1.930915
0.953650 -0.096760 -1.918488
-0.784710 -0.096760 -1.912829
-0.751280 -0.096760 -1.912706
-0.717850 -0.096760 -1.912706
-0.684420 -0.096760 -1.912706
-0.650990 -0.096760 -1.912706
-0.617560 -0.096760 -1.912706
-0.584130 -0.096760 -1.912706
-0.550700 -0.096760 -1.912706
-0.517270 -0.096760 -1.912706
-0.483840 -0.096760 -1.912706
-0.450410 -0.096760 -1.912706
-0.416980 -0.096760 -1.912706
-0.383550 -0.096760 -1.912706
-0.350120 -0.096760 -1.912706
-0.316690 -0.096760 -1.912706
-0.283260 -0.096760 -1.912706
-0.249830 -0.096760 -1.912706
-0.216400 -0.096760 -1.912706
-0.182970 -0.096760 -1.912706
-0.149540 -0.096760 -1.912706
-0.116110 -0.096760 -1.912706
-0.082680 -0.096760 -1.912706
-0.049250 -0.096760 -1.895771
-0.015820 -0.096760 -1.905750
0.017610 -0.096760 -1.912706
0.051040 -0.096760 -1.912706
0.084470 -0.096760 -1.912706
0.117900 -0.096760 -1.912706
0.151330 -0.096760 -1.912706
0.184760 -0.096760 -1.912706
0.218190 -0.096760 -1.912706
0.251620 -0.096760 -1.912706
0.285050 -0.096760 -1.912706
0.318480 -0.096760 -1.912706
0.351910 -0.096760 -1.912706
0.385340 -0.096760 -1.912706
0.418770 -0.096760 -1.912706
0.452200 -0.096760 -1.912706
0.485630 -0.096760 -1.912706
0.519060 -0.096760 -1.912706
0.552490 -0.096760 -1.912706
0.585920 -0.096760 -1.912706
0.619350 -0.096760 -1.912706
0.652780 -0.096760 -1.912706
0.686210 -0.096760 -1.912706
0.719640 -0.096760 -1.912706
0.987080 -0.096760 -1.905905
1.020510 -0.096760 -1.894301
1.053940 -0.096760 -1.881401
1.087370 -0.096760 -1.869482
1.120800 -0.096760 -1.856236
-1.286160 -0.130190 -2.129857
-1.252730 -0.130190 -2.125384
-1.185870 -0.130190 -2.148055
-1.419880 -0.163620 -2.723736
-1.386450 -0.163620 -2.723736
-1.353020 -0.163620 -2.723736
-0.951860 -0.130190 -1.992129
-0.918430 -0.130190 -1.983562
-1.119010 -0.130190 -1.974018
-0.885000 -0.130190 -1.969463
-0.851570 -0.130190 -1.954803
-0.818140 -0.130190 -1.942383
-0.784710 -0.130190 -1.930514
0.953650 -0.130190 -1.940671
0.987080 -0.130190 -1.928438
-0.751280 -0.130190 -1.917756
-0.717850 -0.130190 -1.905403
-0.684420 -0.130190 -1.893115
-0.650990 -0.130190 -1.880745
1.020510 -0.130190 -1.916119
1.053940 -0.130190 -1.903646
-0.617560 -0.130190 -1.868289
-0.584130 -0.130190 -1.861956
-0.550700 -0.130190 -1.861956
-0.517270 -0.130190 -1.861956
-0.483840 -0.130190 -1.861956
-0.450410 -0.130190 -1.861956
-0.416980 -0.130190 -1.861956
-0.383550 -0.130190 -1.861956
-0.350120 -0.130190 -1.861956
-0.316690 -0.130190 -1.861956
-0.283260 -0.130190 -1.861956
-0.249830 -0.130190 -1.861956
-0.216400 -0.130190 -1.861956
-0.182970 -0.130190 -1.861956
-0.149540 -0.130190 -1.861956
-0.116110 -0.130190 -1.861956
-0.082680 -0.130190 -1.861956
-0.049250 -0.130190 -1.861956
-0.015820 -0.130190 -1.861956
0.017610 -0.130190 -1.861956
0.051040 -0.130190 -1.861956
0.084470 -0.130190 -1.861956
0.117900 -0.130190 -1.861956
0.151330 -0.130190 -1.861956
0.184760 -0.130190 -1.861956
0.218190 -0.130190 -1.861956
0.251620 -0.130190 -1.861956
0.285050 -0.130190 -1.861956
0.318480 -0.130190 -1.861956
0.351910 -0.130190 -1.861956
0.385340 -0.130190 -1.861956
0.418770 -0.130190 -1.861956
0.452200 -0.130190 -1.861956
0.485630 -0.130190 -1.861956
0.519060 -0.130190 -1.861956
0.552490 -0.130190 -1.861956
0.585920 -0.130190 -1.861956
0.619350 -0.130190 -1.861956
0.652780 -0.130190 -1.861956
0.686210 -0.130190 -1.861956
0.719640 -0.130190 -1.861956
0.753070 -0.130190 -1.861956
0.786500 -0.130190 -1.861956
0.819930 -0.130190 -1.861956
0.853360 -0.130190 -1.861956
0.886790 -0.130190 -1.861956
-1.419880 -0.197050 -2.672534
-1.386450 -0.197050 -2.672534
-1.353020 -0.197050 -2.672534
-1.319590 -0.197050 -2.672534
-1.219300 -0.163620 -2.037046
-1.119010 -0.163620 -1.983069
-0.951860 -0.163620 -2.013893
-0.918430 -0.163620 -2.005968
-0.885000 -0.163620 -1.998438
-0.851570 -0.163620 -1.986373
-0.818140 -0.163620 -1.974128
-0.784710 -0.163620 -1.961421
-0.751280 -0.163620 -1.949363
-0.717850 -0.163620 -1.935589
0.987080 -0.163620 -1.949835
1.020510 -0.163620 -1.937661
-0.684420 -0.163620 -1.917783
-0.650990 -0.163620 -1.902291
-0.617560 -0.163620 -1.889951
1.053940 -0.163620 -1.925344
1.087370 -0.163620 -1.912877
1.120800 -0.163620 -1.900255
-1.419880 -0.230480 -2.621379
-1.386450 -0.230480 -2.621379
-1.353020 -0.230480 -2.621379
-1.319590 -0.230480 -2.621379
-1.286160 -0.230480 -2.621379
-0.584130 -0.163620 -1.877582
-0.550700 -0.163620 -1.865171
-0.517270 -0.163620 -1.852742
-0.483840 -0.163620 -1.840394
-0.450410 -0.163620 -1.828153
-0.416980 -0.163620 -1.815862
-0.383550 -0.163620 -1.810237
-0.350120 -0.163620 -1.810237
-0.316690 -0.163620 -1.810237
-0.283260 -0.163620 -1.810237
-0.249830 -0.163620 -1.810237
-0.216400 -0.163620 -1.810237
-0.182970 -0.163620 -1.810237
-0.149540 -0.163620 -1.810237
-0.116110 -0.163620 -1.810237
-0.082680 -0.163620 -1.810237
-0.049250 -0.163620 -1.810237
-0.015820 -0.163620 -1.810237
0.017610 -0.163620 -1.810237
0.051040 -0.163620 -1.810237
0.084470 -0.163620 -1.810237
0.117900 -0.163620 -1.810237
0.151330 -0.163620 -1.810237
0.184760 -0.163620 -1.810237
0.218190 -0.163620 -1.810237
0.251620 -0.163620 -1.810237
0.285050 -0.163620 -1.810237
0.318480 -0.163620 -1.810237
0.351910 -0.163620 -1.810237
0.385340 -0.163620 -1.810237
0.418770 -0.163620 -1.810237
0.452200 -0.163620 -1.810237
0.485630 -0.163620 -1.810237
0.519060 -0.163620 -1.810237
0.552490 -0.163620 -1.810237
0.585920 -0.163620 -1.810237
0.619350 -0.163620 -1.810237
0.652780 -0.163620 -1.810237
0.686210 -0.163620 -1.810237
0.719640 -0.163620 -1.810237
0.753070 -0.163620 -1.810237
0.786500 -0.163620 -1.810237
0.819930 -0.163620 -1.810237
0.853360 -0.163620 -1.810237
0.886790 -0.163620 -1.810237
-0.951860 -0.197050 -2.035865
-0.918430 -0.197050 -2.028486
-0.885000 -0.197050 -2.020658
-1.152440 -0.197050 -1.998500
-1.119010 -0.197050 -1.998022
-0.851570 -0.197050 -2.008270
-0.818140 -0.197050 -1.995513
-0.784710 -0.197050 -1.983395
-0.751280 -0.197050 -1.971144
0.987080 -0.197050 -1.971600
-0.717850 -0.197050 -1.958751
-0.684420 -0.197050 -1.946214
1.020510 -0.197050 -1.959684
1.053940 -0.197050 -1.946849
1.087370 -0.197050 -1.934339
-1.386450 -0.263910 -2.570135
-1.353020 -0.263910 -2.570135
-1.319590 -0.263910 -2.570135
-1.286160 -0.263910 -2.570135
-1.252730 -0.263910 -2.570135
-0.650990 -0.197050 -1.933530
-0.617560 -0.197050 -1.921284
-0.584130 -0.197050 -1.909185
-0.517270 -0.197050 -1.898969
1.120800 -0.197050 -1.921998
1.154230 -0.197050 -1.909509
-0.550700 -0.197050 -1.890851
-0.483840 -0.197050 -1.896111
-0.450410 -0.197050 -1.879293
-0.350120 -0.197050 -1.812623
-0.316690 -0.197050 -1.799813
-0.283260 -0.197050 -1.787778
-0.249830 -0.197050 -1.775305
-0.951860 -0.230480 -2.057643
-0.918430 -0.230480 -2.049967
-0.885000 -0.230480 -2.042257
-0.216400 -0.197050 -1.763211
-0.182970 -0.197050 -1.759522
-0.149540 -0.197050 -1.759522
-0.116110 -0.197050 -1.759522
-0.082680 -0.197050 -1.759522
-0.049250 -0.197050 -1.759522
-0.015820 -0.197050 -1.759522
0.017610 -0.197050 -1.759522
0.051040 -0.197050 -1.759522
0.084470 -0.197050 -1.759522
0.117900 -0.197050 -1.759522
0.151330 -0.197050 -1.759522
0.184760 -0.197050 -1.759522
0.218190 -0.197050 -1.759522
0.251620 -0.197050 -1.759522
0.285050 -0.197050 -1.759522
0.318480 -0.197050 -1.759522
0.351910 -0.197050 -1.759522
0.385340 -0.197050 -1.759522
0.418770 -0.197050 -1.759522
0.452200 -0.197050 -1.759522
0.485630 -0.197050 -1.759522
0.519060 -0.197050 -1.759522
0.552490 -0.197050 -1.759522
0.585920 -0.197050 -1.759522
0.619350 -0.197050 -1.759522
0.652780 -0.197050 -1.759522
0.686210 -0.197050 -1.759522
0.719640 -0.197050 -1.759522
0.753070 -0.197050 -1.759522
0.786500 -0.197050 -1.759522
0.819930 -0.197050 -1.759522
0.853360 -0.197050 -1.759522
-1.152440 -0.230480 -2.018600
-1.119010 -0.230480 -2.016144
-0.851570 -0.230480 -2.029836
-0.818140 -0.230480 -2.017337
-0.784710 -0.230480 -2.005382
-0.751280 -0.230480 -1.992570
-0.717850 -0.230480 -1.980398
-0.684420 -0.230480 -1.968091
1.020510 -0.230480 -1.981225
1.053940 -0.230480 -1.968841
-1.353020 -0.297340 -2.519205
-1.319590 -0.297340 -2.519205
-1.286160 -0.297340 -2.519205
-1.252730 -0.297340 -2.519205
-1.219300 -0.297340 -2.519205
-0.650990 -0.230480 -1.955639
-0.617560 -0.230480 -1.943044
1.087370 -0.230480 -1.956402
1.120800 -0.230480 -1.944154
-1.185870 -0.297340 -2.474110
-0.584130 -0.230480 -1.930831
-0.550700 -0.230480 -1.914156
-0.517270 -0.230480 -1.921160
-0.483840 -0.230480 -1.917742
-0.450410 -0.230480 -1.905586
1.154230 -0.230480 -1.931947
-0.416980 -0.230480 -1.893348
-0.383550 -0.230480 -1.880796
-0.350120 -0.230480 -1.868520
-0.316690 -0.230480 -1.856143
-0.283260 -0.230480 -1.843594
-0.249830 -0.230480 -1.828320
-0.951860 -0.263910 -2.079356
-0.918430 -0.263910 -2.072672
-0.885000 -0.263910 -2.064076
-1.119010 -0.263910 -2.036060
-0.851570 -0.263910 -2.051852
-0.818140 -0.263910 -2.039505
-0.784710 -0.263910 -2.027034
-0.182970 -0.230480 -1.772056
-0.751280 -0.263910 -2.014433
-0.717850 -0.263910 -2.002465
-0.149540 -0.230480 -1.759876
-0.116110 -0.230480 -1.747596
1.020510 -0.263910 -2.003387
-1.453310 -0.330770 -2.467789
-1.419880 -0.330770 -2.467789
-1.286160 -0.330770 -2.467789
-1.252730 -0.330770 -2.467789
-1.219300 -0.330770 -2.467789
-1.152440 -0.330770 -2.467789
-0.684420 -0.263910 -1.989610
-0.650990 -0.263910 -1.977382
-0.082680 -0.230480 -1.735213
-0.049250 -0.230480 -1.722723
1.053940 -0.263910 -1.990751
1.087370 -0.263910 -1.977982
1.120800 -0.263910 -1.966164
-0.617560 -0.263910 -1.965019
-0.584130 -0.263910 -1.952508
-0.517270 -0.263910 -1.942966
-0.483840 -0.263910 -1.939701
-0.015820 -0.230480 -1.710809
0.017610 -0.230480 -1.708745
0.051040 -0.230480 -1.708745
0.084470 -0.230480 -1.708745
0.117900 -0.230480 -1.708745
0.151330 -0.230480 -1.708745
0.184760 -0.230480 -1.708745
0.218190 -0.230480 -1.708745
0.251620 -0.230480 -1.708745
0.285050 -0.230480 -1.708745
0.318480 -0.230480 -1.708745
0.351910 -0.230480 -1.708745
0.385340 -0.230480 -1.708745
0.418770 -0.230480 -1.708745
0.452200 -0.230480 -1.708745
0.485630 -0.230480 -1.708745
0.519060 -0.230480 -1.708745
0.552490 -0.230480 -1.708745
0.585920 -0.230480 -1.708745
0.619350 -0.230480 -1.708745
0.652780 -0.230480 -1.708745
0.686210 -0.230480 -1.708745
0.719640 -0.230480 -1.708745
0.753070 -0.230480 -1.708745
0.786500 -0.230480 -1.708745
0.819930 -0.230480 -1.708745
0.853360 -0.230480 -1.708745
1.154230 -0.263910 -1.953439
-0.550700 -0.263910 -1.937453
-0.450410 -0.263910 -1.927503
-0.416980 -0.263910 -1.915149
-0.383550 -0.263910 -1.902631
-0.350120 -0.263910 -1.890153
-0.951860 -0.297340 -2.101657
-0.316690 -0.263910 -1.877880
-0.283260 -0.263910 -1.865525
-0.918430 -0.297340 -2.094450
-0.885000 -0.297340 -2.085854
-0.851570 -0.297340 -2.073561
-0.249830 -0.263910 -1.853084
-0.216400 -0.263910 -1.840557
-1.119010 -0.297340 -2.062001
-0.818140 -0.297340 -2.061407
-0.784710 -0.297340 -2.048894
-0.182970 -0.263910 -1.827983
-0.149540 -0.263910 -1.816046
-0.751280 -0.297340 -2.036729
-0.717850 -0.297340 -2.024214
1.020510 -0.297340 -2.025027
-0.684420 -0.297340 -2.011563
-0.650990 -0.297340 -1.999551
-0.116110 -0.263910 -1.769369
1.053940 -0.297340 -2.012705
1.087370 -0.297340 -2.000180
-1.453310 -0.364200 -2.416187
-1.419880 -0.364200 -2.416187
-1.386450 -0.364200 -2.416187
-1.353020 -0.364200 -2.416187
-1.252730 -0.364200 -2.416187
-1.219300 -0.364200 -2.416187
-1.119010 -0.364200 -2.416187
-0.617560 -0.297340 -1.986631
-0.584130 -0.297340 -1.974348
-0.517270 -0.297340 -1.964569
-0.082680 -0.263910 -1.757111
-0.049250 -0.263910 -1.744489
1.120800 -0.297340 -1.987569
1.154230 -0.297340 -1.975567
-0.550700 -0.297340 -1.961173
-0.483840 -0.297340 -1.961302
-0.450410 -0.297340 -1.949347
-0.015820 -0.263910 -1.732261
1.187660 -0.297340 -1.962900
-0.416980 -0.297340 -1.936820
-0.383550 -0.297340 -1.924178
0.017610 -0.263910 -1.719408
0.051040 -0.263910 -1.707125
-1.152440 -0.364200 -2.344510
-0.951860 -0.330770 -2.122969
-0.918430 -0.330770 -2.116856
-0.885000 -0.330770 -2.107590
-0.350120 -0.297340 -1.912057
-0.316690 -0.297340 -1.899987
0.084470 -0.263910 -1.695054
0.117900 -0.263910 -1.682415
-1.119010 -0.330770 -2.091314
-0.851570 -0.330770 -2.095263
-0.818140 -0.330770 -2.083007
-0.283260 -0.297340 -1.887240
-0.249830 -0.297340 -1.874758
0.151330 -0.263910 -1.669866
-0.784710 -0.330770 -2.070859
-0.751280 -0.330770 -2.057958
-0.216400 -0.297340 -1.862447
-0.182970 -0.297340 -1.850055
0.184760 -0.263910 -1.658120
0.218190 -0.263910 -1.657668
0.251620 -0.263910 -1.657668
0.285050 -0.263910 -1.657668
0.318480 -0.263910 -1.657668
0.351910 -0.263910 -1.657668
0.385340 -0.263910 -1.657668
0.418770 -0.263910 -1.657668
0.452200 -0.263910 -1.657668
0.485630 -0.263910 -1.657668
0.519060 -0.263910 -1.657668
0.552490 -0.263910 -1.657668
0.585920 -0.263910 -1.657668
0.619350 -0.263910 -1.657668
0.652780 -0.263910 -1.657668
0.686210 -0.263910 -1.657668
0.719640 -0.263910 -1.657668
0.753070 -0.263910 -1.657668
0.786500 -0.263910 -1.657668
0.819930 -0.263910 -1.657668
-0.717850 -0.330770 -2.045633
-0.684420 -0.330770 -2.033185
-0.149540 -0.297340 -1.837574
1.053940 -0.330770 -2.034227
-0.650990 -0.330770 -2.021244
-0.617560 -0.330770 -2.008674
1.087370 -0.330770 -2.021931
1.120800 -0.330770 -2.009514
-0.584130 -0.330770 -1.996114
-0.517270 -0.330770 -1.986234
-0.116110 -0.297340 -1.791343
1.154230 -0.330770 -1.997042
1.187660 -0.330770 -1.984653
-1.419880 -0.397630 -2.365496
-1.386450 -0.397630 -2.365496
-1.353020 -0.397630 -2.365496
-1.319590 -0.397630 -2.365496
-1.119010 -0.397630 -2.365496
-1.085580 -0.397630 -2.365496
-0.550700 -0.330770 -1.979468
-0.483840 -0.330770 -1.983322
-0.450410 -0.330770 -1.970909
-0.082680 -0.297340 -1.778692
-0.049250 -0.297340 -1.775918
-0.951860 -0.364200 -2.144897
-0.918430 -0.364200 -2.137607
-0.416980 -0.330770 -1.958857
-0.383550 -0.330770 -1.946154
-0.015820 -0.297340 -1.763461
0.017610 -0.297340 -1.751149
-0.885000 -0.364200 -2.129516
-0.851570 -0.364200 -2.117466
-0.350120 -0.330770 -1.933963
-0.316690 -0.330770 -1.921626
0.051040 -0.297340 -1.738736
-0.818140 -0.364200 -2.105073
-0.784710 -0.364200 -2.092416
-0.283260 -0.330770 -1.909159
0.084470 -0.297340 -1.719429
-0.751280 -0.364200 -2.079964
-0.717850 -0.364200 -2.067508
-0.249830 -0.330770 -1.896512
-0.216400 -0.330770 -1.884514
0.117900 -0.297340 -1.704442
0.151330 -0.297340 -1.692058
-0.684420 -0.364200 -2.055254
-0.182970 -0.330770 -1.871663
-0.149540 -0.330770 -1.859399
0.184760 -0.297340 -1.679627
1.053940 -0.364200 -2.056388
-0.650990 -0.364200 -2.042882
-0.617560 -0.364200 -2.030381
0.218190 -0.297340 -1.667065
0.251620 -0.297340 -1.655005
1.087370 -0.364200 -2.043398
1.120800 -0.364200 -2.031070
-0.584130 -0.364200 -2.017752
-0.550700 -0.364200 -2.003767
-0.517270 -0.364200 -2.008506
-0.483840 -0.364200 -2.005515
0.285050 -0.297340 -1.642469
1.154230 -0.364200 -2.018973
1.187660 -0.364200 -2.006323
-0.951860 -0.397630 -2.166676
-0.450410 -0.364200 -1.992690
-0.116110 -0.330770 -1.812974
-0.082680 -0.330770 -1.800458
0.318480 -0.297340 -1.630384
-0.918430 -0.397630 -2.159047
-0.885000 -0.397630 -2.151492
-0.416980 -0.364200 -1.980262
-0.383550 -0.364200 -1.968355
-0.049250 -0.330770 -1.797933
-0.015820 -0.330770 -1.785435
0.351910 -0.297340 -1.617324
0.385340 -0.297340 -1.606584
0.418770 -0.297340 -1.605876
0.452200 -0.297340 -1.605876
0.485630 -0.297340 -1.605876
0.519060 -0.297340 -1.605876
0.552490 -0.297340 -1.605876
0.585920 -0.297340 -1.605876
0.619350 -0.297340 -1.605876
0.652780 -0.297340 -1.605876
0.686210 -0.297340 -1.605876
0.719640 -0.297340 -1.605876
0.753070 -0.297340 -1.605876
0.786500 -0.297340 -1.605876
-1.386450 -0.431060 -2.314274
-1.353020 -0.431060 -2.314274
-1.319590 -0.431060 -2.314274
-1.286160 -0.431060 -2.314274
-1.252730 -0.431060 -2.314274
-1.219300 -0.431060 -2.314274
-1.185870 -0.431060 -2.314274
-1.152440 -0.431060 -2.314274
-1.119010 -0.431060 -2.314274
-1.085580 -0.431060 -2.314274
-1.052150 -0.431060 -2.314274
-0.851570 -0.397630 -2.139229
-0.818140 -0.397630 -2.126604
-0.350120 -0.364200 -1.955763
-0.316690 -0.364200 -1.943661
0.017610 -0.330770 -1.772668
-0.784710 -0.397630 -2.114379
-0.751280 -0.397630 -2.101788
-0.283260 -0.364200 -1.931051
0.051040 -0.330770 -1.760669
0.084470 -0.330770 -1.747952
-0.717850 -0.397630 -2.089393
-0.249830 -0.364200 -1.918380
-0.216400 -0.364200 -1.905869
0.117900 -0.330770 -1.735768
-0.684420 -0.397630 -2.077023
-0.650990 -0.397630 -2.064837
-0.182970 -0.364200 -1.893642
0.151330 -0.330770 -1.723214
1.087370 -0.397630 -2.065815
