ply
format ascii 1.0
element vertex 1676
property float x
property float y
property float z
end_header
-1.394807 0.112178 -2.300000
-1.386450 0.112178 -2.300105
-1.378092 0.112178 -2.301000
-1.369735 0.112178 -2.301094
-1.361377 0.112178 -2.302024
-1.353020 0.112178 -2.302083
-1.344662 0.112178 -2.303000
-1.336305 0.112178 -2.303072
-1.327947 0.112178 -2.304000
-1.319590 0.112178 -2.304061
-1.311232 0.112178 -2.305050
-1.302875 0.112178 -2.305860
-1.294517 0.112178 -2.306039
-1.185870 0.103820 -2.124123
-1.177512 0.103820 -2.119440
-1.169155 0.103820 -2.117218
-1.160797 0.103820 -2.117940
-1.152440 0.103820 -2.121353
-1.144082 0.103820 -2.131974
-1.286160 0.128893 -2.602849
-1.277802 0.128893 -2.599188
-1.269445 0.128893 -2.596157
-1.261087 0.128893 -2.593234
-1.252730 0.128893 -2.590305
-1.244372 0.128893 -2.587093
-1.236015 0.128893 -2.583850
-1.210942 0.128893 -2.574708
-1.202585 0.128893 -2.571745
-1.194227 0.128893 -2.568639
-0.868285 0.112178 -2.233108
-0.859927 0.112178 -2.233108
-0.851570 0.112178 -2.233108
-0.843212 0.112178 -2.233108
-0.834855 0.112178 -2.233108
-0.826497 0.112178 -2.233108
-0.818140 0.112178 -2.233108
-0.809782 0.112178 -2.233108
-0.801425 0.112178 -2.233108
-0.793067 0.112178 -2.233108
-0.784710 0.112178 -2.233108
-0.776352 0.112178 -2.233108
-0.767995 0.112178 -2.233108
-0.759637 0.112178 -2.233108
-0.751280 0.112178 -2.233108
-0.742922 0.112178 -2.233108
-0.734565 0.112178 -2.233108
-0.726207 0.112178 -2.233108
-0.717850 0.112178 -2.233108
-0.709492 0.112178 -2.233108
-0.701135 0.112178 -2.233108
-0.692777 0.112178 -2.233108
-0.684420 0.112178 -2.233108
-0.676062 0.112178 -2.233108
-0.667705 0.112178 -2.233108
-0.659347 0.112178 -2.233108
-0.650990 0.112178 -2.233108
-0.642632 0.112178 -2.233108
-0.634275 0.112178 -2.233108
-0.625917 0.112178 -2.233108
-0.617560 0.112178 -2.233108
-0.609202 0.112178 -2.233108
-0.600845 0.112178 -2.233108
-0.592487 0.112178 -2.233108
-0.584130 0.112178 -2.233108
-0.575772 0.112178 -2.233108
-0.567415 0.112178 -2.233108
-0.559057 0.112178 -2.233108
-0.550700 0.112178 -2.233108
-0.542342 0.112178 -2.233108
-0.533985 0.112178 -2.233108
-0.525627 0.112178 -2.233108
-0.517270 0.112178 -2.233108
-0.508912 0.112178 -2.233108
-0.500555 0.112178 -2.233108
-0.492197 0.112178 -2.233108
-0.483840 0.112178 -2.233108
-0.467125 0.112178 -2.309381
-0.458767 0.112178 -2.306732
-0.450410 0.112178 -2.303129
-0.442052 0.112178 -2.300463
-0.433695 0.112178 -2.296972
-0.425337 0.112178 -2.294156
-0.416980 0.112178 -2.290512
-0.408622 0.112178 -2.287811
-0.400265 0.112178 -2.284644
-0.391907 0.112178 -2.281426
-0.383550 0.112178 -2.278699
-0.375192 0.112178 -2.275371
-0.366835 0.112178 -2.272256
-0.358477 0.112178 -2.269075
-0.350120 0.112178 -2.266146
-0.341762 0.112178 -2.262998
-0.333405 0.112178 -2.260215
-0.325047 0.112178 -2.256453
-0.316690 0.112178 -2.253650
-0.308332 0.112178 -2.250516
-0.299975 0.112178 -2.247459
-0.291617 0.112178 -2.244493
-0.283260 0.112178 -2.241369
-0.274902 0.112178 -2.238518
-0.266545 0.112178 -2.235504
-0.258187 0.112178 -2.231804
-0.249830 0.112178 -2.228922
-0.241472 0.112178 -2.225988
-0.233115 0.112178 -2.222571
-0.157897 0.087105 -1.793342
-0.149540 0.087105 -1.780707
-0.141182 0.087105 -1.769855
-0.132825 0.087105 -1.760875
-0.124467 0.087105 -1.753849
-0.116110 0.087105 -1.748386
-0.107752 0.087105 -1.742702
-0.099395 0.087105 -1.739294
-0.091037 0.087105 -1.735047
-0.082680 0.087105 -1.732554
-0.074322 0.087105 -1.729989
-0.065965 0.087105 -1.728492
-0.057607 0.087105 -1.727000
-0.049250 0.087105 -1.726000
-0.040892 0.087105 -1.726000
-0.032535 0.087105 -1.726607
-0.024177 0.087105 -1.727965
-0.015820 0.087105 -1.728950
-0.007462 0.087105 -1.731153
0.000895 0.087105 -1.733649
0.009253 0.087105 -1.737121
0.017610 0.087105 -1.740584
0.025968 0.087105 -1.745035
0.034325 0.087105 -1.750220
0.042683 0.087105 -1.756312
0.051040 0.087105 -1.764735
0.059398 0.087105 -1.773688
0.067755 0.087105 -1.785630
0.109543 0.103820 -2.100787
0.117900 0.103820 -2.098035
0.126258 0.103820 -2.094667
0.134615 0.103820 -2.091591
0.142973 0.103820 -2.088780
0.151330 0.103820 -2.085496
0.159688 0.103820 -2.082205
0.168045 0.103820 -2.079659
0.176403 0.103820 -2.076288
0.184760 0.103820 -2.073128
0.193118 0.103820 -2.070028
0.201475 0.103820 -2.066907
0.209833 0.103820 -2.063390
0.218190 0.103820 -2.060943
0.226548 0.103820 -2.057723
0.493988 0.095463 -1.963840
0.502345 0.095463 -1.960886
0.510703 0.095463 -1.957305
0.519060 0.095463 -1.954821
0.527418 0.095463 -1.951220
0.535775 0.095463 -1.948474
0.544133 0.095463 -1.945100
0.552490 0.095463 -1.942245
0.560848 0.095463 -1.938944
0.569205 0.095463 -1.935978
0.577563 0.095463 -1.932752
0.585920 0.095463 -1.929672
0.594278 0.095463 -1.926522
0.602635 0.095463 -1.923956
0.610993 0.095463 -1.920253
0.619350 0.095463 -1.917596
0.627708 0.095463 -1.913946
0.636065 0.095463 -1.911345
0.644423 0.095463 -1.907783
0.652780 0.095463 -1.904979
0.661138 0.095463 -1.901372
0.669495 0.095463 -1.898573
0.677853 0.095463 -1.895927
0.686210 0.095463 -1.892125
0.970365 0.087105 -1.792215
0.978723 0.087105 -1.789197
0.987080 0.087105 -1.786166
0.995438 0.087105 -1.783123
1.003795 0.087105 -1.780067
1.012153 0.087105 -1.776997
1.020510 0.087105 -1.773915
1.028868 0.087105 -1.770819
1.037225 0.087105 -1.767709
1.045583 0.087105 -1.764586
1.053940 0.087105 -1.761448
1.062298 0.087105 -1.758297
-1.236015 0.112178 -2.317398
-1.227657 0.112178 -2.322996
-1.219300 0.112178 -2.333399
-1.210942 0.120535 -2.579778
-1.202585 0.120535 -2.576799
-1.194227 0.120535 -2.573840
-1.144082 0.120535 -2.555086
-1.135725 0.120535 -2.552084
-1.127367 0.120535 -2.549075
-1.119010 0.120535 -2.546061
-1.110652 0.120535 -2.543040
-1.102295 0.120535 -2.540013
-1.093937 0.120535 -2.536497
-1.085580 0.120535 -2.533482
-1.077222 0.120535 -2.530463
-1.068865 0.120535 -2.527435
-1.060507 0.120535 -2.524403
-1.052150 0.120535 -2.521363
-1.043792 0.120535 -2.517762
-1.035435 0.120535 -2.514682
-1.027077 0.120535 -2.511596
-1.018720 0.120535 -2.508503
-1.010362 0.120535 -2.505403
-1.002005 0.120535 -2.502297
-0.993647 0.120535 -2.499183
-0.876642 0.103820 -2.220338
-0.868285 0.103820 -2.220338
-0.859927 0.103820 -2.220338
-0.851570 0.103820 -2.220338
-0.843212 0.103820 -2.220338
-0.834855 0.103820 -2.220338
-0.826497 0.103820 -2.220338
-0.818140 0.103820 -2.220338
-0.809782 0.103820 -2.220338
-0.801425 0.103820 -2.220338
-0.793067 0.103820 -2.220338
-0.784710 0.103820 -2.220338
-0.776352 0.103820 -2.220338
-0.767995 0.103820 -2.220338
-0.759637 0.103820 -2.220338
-0.751280 0.103820 -2.220338
-0.742922 0.103820 -2.220338
-0.734565 0.103820 -2.220338
-0.726207 0.103820 -2.220338
-0.717850 0.103820 -2.220338
-0.709492 0.103820 -2.220338
-0.701135 0.103820 -2.220338
-0.692777 0.103820 -2.220338
-0.684420 0.103820 -2.220338
-0.676062 0.103820 -2.220338
-0.667705 0.103820 -2.220338
-0.659347 0.103820 -2.220338
-0.650990 0.103820 -2.220338
-0.642632 0.103820 -2.220338
-0.634275 0.103820 -2.220338
-0.625917 0.103820 -2.220338
-0.617560 0.103820 -2.220338
-0.609202 0.103820 -2.220338
-0.600845 0.103820 -2.220338
-0.592487 0.103820 -2.220338
-0.584130 0.103820 -2.220338
-0.575772 0.103820 -2.220338
-0.567415 0.103820 -2.220338
-0.559057 0.103820 -2.220338
-0.550700 0.103820 -2.220338
-0.542342 0.103820 -2.220338
-0.533985 0.103820 -2.220338
-0.525627 0.103820 -2.220338
-0.517270 0.103820 -2.220338
-0.508912 0.103820 -2.220338
-0.500555 0.103820 -2.220338
-0.492197 0.103820 -2.220338
-0.483840 0.103820 -2.220338
-0.475482 0.103820 -2.220338
-0.467125 0.103820 -2.220338
-0.458767 0.103820 -2.220338
-0.216400 0.103820 -2.222166
-0.166255 0.087105 -1.809385
0.076113 0.087105 -1.798906
0.084470 0.087105 -1.822071
0.276693 0.095463 -2.044417
0.285050 0.095463 -2.041269
0.293408 0.095463 -2.038691
0.301765 0.095463 -2.035285
0.310123 0.095463 -2.032049
0.318480 0.095463 -2.028760
0.326838 0.095463 -2.026100
0.335195 0.095463 -2.022661
0.343553 0.095463 -2.019557
0.351910 0.095463 -2.016146
0.360268 0.095463 -2.013379
0.368625 0.095463 -2.010375
0.376983 0.095463 -2.006939
0.385340 0.095463 -2.004092
0.393698 0.095463 -2.001122
0.402055 0.095463 -1.997659
0.410413 0.095463 -1.994709
0.418770 0.095463 -1.991795
0.427128 0.095463 -1.988630
0.435485 0.095463 -1.985168
0.443843 0.095463 -1.982393
0.452200 0.095463 -1.979069
0.460558 0.095463 -1.976447
0.468915 0.095463 -1.972913
0.477273 0.095463 -1.969685
0.485630 0.095463 -1.966917
0.778143 0.087105 -1.864312
0.786500 0.087105 -1.860388
0.794858 0.087105 -1.857622
0.803215 0.087105 -1.854847
0.811573 0.087105 -1.850884
0.819930 0.087105 -1.848086
0.828288 0.087105 -1.845279
0.836645 0.087105 -1.842461
0.845003 0.087105 -1.838883
0.853360 0.087105 -1.835604
0.861718 0.087105 -1.832753
0.870075 0.087105 -1.829891
0.878433 0.087105 -1.827019
0.886790 0.087105 -1.823627
0.895148 0.087105 -1.820036
0.903505 0.087105 -1.817128
0.911863 0.087105 -1.814209
0.920220 0.087105 -1.811278
0.928578 0.087105 -1.808336
0.936935 0.087105 -1.805178
0.945293 0.087105 -1.801194
0.953650 0.087105 -1.798213
0.962008 0.087105 -1.795220
-1.394807 0.103820 -2.298979
-1.386450 0.103820 -2.299206
-1.378092 0.103820 -2.299925
-1.369735 0.103820 -2.300196
-1.361377 0.103820 -2.301000
-1.353020 0.103820 -2.301186
-1.344662 0.103820 -2.302000
-1.336305 0.103820 -2.302176
-1.327947 0.103820 -2.303000
-1.319590 0.103820 -2.303784
-1.311232 0.103820 -2.304155
-1.302875 0.103820 -2.304713
-1.294517 0.103820 -2.305145
-1.177512 0.095463 -2.111494
-1.169155 0.095463 -2.109052
-1.160797 0.095463 -2.109052
-1.152440 0.095463 -2.111664
-1.144082 0.095463 -2.118346
-1.236015 0.103820 -2.315268
-1.286160 0.120535 -2.607792
-1.277802 0.120535 -2.604892
-1.269445 0.120535 -2.601986
-1.261087 0.120535 -2.599075
-1.252730 0.120535 -2.595295
-1.244372 0.120535 -2.592371
-1.236015 0.120535 -2.589442
-0.408622 0.103820 -2.293288
-0.400265 0.103820 -2.290355
-0.391907 0.103820 -2.286934
-0.383550 0.103820 -2.284220
-0.375192 0.103820 -2.280669
-0.366835 0.103820 -2.277811
-0.358477 0.103820 -2.274849
-0.350120 0.103820 -2.271359
-0.341762 0.103820 -2.268601
-0.333405 0.103820 -2.265085
-0.325047 0.103820 -2.262152
-0.316690 0.103820 -2.259214
-0.308332 0.103820 -2.256271
-0.299975 0.103820 -2.252730
-0.291617 0.103820 -2.249914
-0.283260 0.103820 -2.246855
-0.274902 0.103820 -2.243444
-0.266545 0.103820 -2.240474
-0.258187 0.103820 -2.237499
-0.249830 0.103820 -2.234519
-0.241472 0.103820 -2.231534
-0.233115 0.103820 -2.227969
-0.224757 0.103820 -2.225073
-0.124467 0.078748 -1.752454
-0.116110 0.078748 -1.745832
-0.107752 0.078748 -1.741221
-0.099395 0.078748 -1.736848
-0.091037 0.078748 -1.733423
-0.082680 0.078748 -1.730961
-0.074322 0.078748 -1.728492
-0.065965 0.078748 -1.726992
-0.057607 0.078748 -1.725488
-0.049250 0.078748 -1.725000
-0.040892 0.078748 -1.725000
-0.032535 0.078748 -1.725460
-0.024177 0.078748 -1.726447
-0.015820 0.078748 -1.727433
-0.007462 0.078748 -1.729637
0.000895 0.078748 -1.732139
0.009253 0.078748 -1.734634
0.017610 0.078748 -1.738908
0.025968 0.078748 -1.742646
0.034325 0.078748 -1.748611
0.042683 0.078748 -1.755528
0.109543 0.095463 -2.106313
0.117900 0.095463 -2.103418
0.126258 0.095463 -2.100147
0.134615 0.095463 -2.096997
0.142973 0.095463 -2.094369
0.151330 0.095463 -2.091075
0.159688 0.095463 -2.087829
0.168045 0.095463 -2.084548
0.176403 0.095463 -2.081868
0.184760 0.095463 -2.078434
0.193118 0.095463 -2.075720
0.201475 0.095463 -2.072409
0.209833 0.095463 -2.069090
0.218190 0.095463 -2.065764
0.226548 0.095463 -2.063116
0.234905 0.095463 -2.059973
0.243263 0.095463 -2.056806
0.251620 0.095463 -2.053531
0.259978 0.095463 -2.051037
0.268335 0.095463 -2.047755
0.560848 0.087105 -1.944031
0.569205 0.087105 -1.941470
0.577563 0.087105 -1.937859
0.585920 0.087105 -1.935294
0.594278 0.087105 -1.931631
0.602635 0.087105 -1.929080
0.610993 0.087105 -1.925397
0.619350 0.087105 -1.922829
0.627708 0.087105 -1.919893
0.636065 0.087105 -1.916539
0.644423 0.087105 -1.913608
0.652780 0.087105 -1.910210
0.661138 0.087105 -1.907598
0.669495 0.087105 -1.903840
0.677853 0.087105 -1.901210
0.686210 0.087105 -1.897891
0.694568 0.087105 -1.894781
0.702925 0.087105 -1.892124
0.711283 0.087105 -1.888309
0.719640 0.087105 -1.885632
0.727998 0.087105 -1.882315
0.736355 0.087105 -1.879097
0.744713 0.087105 -1.876392
0.753070 0.087105 -1.872998
0.761428 0.087105 -1.869791
0.769785 0.087105 -1.867057
-1.227657 0.103820 -2.320084
-1.219300 0.103820 -2.330285
-1.286160 0.112178 -2.613577
-1.277802 0.112178 -2.610688
-1.269445 0.112178 -2.607121
-1.261087 0.112178 -2.604031
-1.252730 0.112178 -2.601124
-1.244372 0.112178 -2.598212
-1.210942 0.112178 -2.585640
-1.202585 0.112178 -2.582699
-1.194227 0.112178 -2.579174
-1.144082 0.112178 -2.560691
-1.135725 0.112178 -2.557669
-1.127367 0.112178 -2.554212
-1.119010 0.112178 -2.551210
-1.110652 0.112178 -2.548200
-1.102295 0.112178 -2.545186
-1.093937 0.112178 -2.542164
-1.085580 0.112178 -2.539137
-1.077222 0.112178 -2.536102
-1.068865 0.112178 -2.532845
-1.060507 0.112178 -2.529822
-1.052150 0.112178 -2.526793
-1.043792 0.112178 -2.523758
-1.035435 0.112178 -2.520716
-1.027077 0.112178 -2.517668
-1.018720 0.112178 -2.513951
-1.010362 0.112178 -2.510713
-0.876642 0.095463 -2.207426
-0.868285 0.095463 -2.207426
-0.859927 0.095463 -2.207426
-0.851570 0.095463 -2.207426
-0.843212 0.095463 -2.207426
-0.834855 0.095463 -2.207426
-0.826497 0.095463 -2.207426
-0.818140 0.095463 -2.207426
-0.809782 0.095463 -2.207426
-0.801425 0.095463 -2.207426
-0.793067 0.095463 -2.207426
-0.784710 0.095463 -2.207426
-0.776352 0.095463 -2.207426
-0.767995 0.095463 -2.207426
-0.759637 0.095463 -2.207426
-0.751280 0.095463 -2.207426
-0.742922 0.095463 -2.207426
-0.734565 0.095463 -2.207426
-0.726207 0.095463 -2.207426
-0.717850 0.095463 -2.207426
-0.709492 0.095463 -2.207426
-0.701135 0.095463 -2.207426
-0.692777 0.095463 -2.207426
-0.684420 0.095463 -2.207426
-0.676062 0.095463 -2.207426
-0.667705 0.095463 -2.207426
-0.659347 0.095463 -2.207426
-0.650990 0.095463 -2.207426
-0.642632 0.095463 -2.207426
-0.634275 0.095463 -2.207426
-0.625917 0.095463 -2.207426
-0.617560 0.095463 -2.207426
-0.609202 0.095463 -2.207426
-0.600845 0.095463 -2.207426
-0.592487 0.095463 -2.207426
-0.584130 0.095463 -2.207426
-0.575772 0.095463 -2.207426
-0.567415 0.095463 -2.207426
-0.559057 0.095463 -2.207426
-0.550700 0.095463 -2.207426
-0.542342 0.095463 -2.207426
-0.533985 0.095463 -2.207426
-0.525627 0.095463 -2.207426
-0.517270 0.095463 -2.207426
-0.508912 0.095463 -2.207426
-0.500555 0.095463 -2.207426
-0.492197 0.095463 -2.207426
-0.483840 0.095463 -2.207426
-0.475482 0.095463 -2.207426
-0.467125 0.095463 -2.207426
-0.458767 0.095463 -2.207426
-0.450410 0.095463 -2.207426
-0.442052 0.095463 -2.207426
-0.433695 0.095463 -2.207426
-0.425337 0.095463 -2.207426
-0.416980 0.095463 -2.207426
-0.408622 0.095463 -2.207426
-0.166255 0.078748 -1.808619
-0.157897 0.078748 -1.790046
-0.149540 0.078748 -1.778024
-0.141182 0.078748 -1.768520
-0.132825 0.078748 -1.759523
0.051040 0.078748 -1.763045
0.059398 0.078748 -1.772211
0.067755 0.078748 -1.782649
0.076113 0.078748 -1.795088
0.084470 0.078748 -1.822071
0.326838 0.087105 -2.030997
0.335195 0.087105 -2.028395
0.343553 0.087105 -2.025197
0.351910 0.087105 -2.021888
0.360268 0.087105 -2.018484
0.368625 0.087105 -2.015947
0.376983 0.087105 -2.012726
0.385340 0.087105 -2.009297
0.393698 0.087105 -2.006625
0.402055 0.087105 -2.003493
0.410413 0.087105 -2.000038
0.418770 0.087105 -1.997228
0.427128 0.087105 -1.994188
0.435485 0.087105 -1.990707
0.443843 0.087105 -1.987754
0.452200 0.087105 -1.984808
0.460558 0.087105 -1.981762
0.468915 0.087105 -1.978877
0.477273 0.087105 -1.975351
0.485630 0.087105 -1.972157
0.493988 0.087105 -1.969369
0.502345 0.087105 -1.966079
0.510703 0.087105 -1.963280
0.519060 0.087105 -1.959781
0.527418 0.087105 -1.957305
0.535775 0.087105 -1.953713
0.544133 0.087105 -1.950167
0.552490 0.087105 -1.947609
0.870075 0.078748 -1.835605
0.878433 0.078748 -1.831560
0.886790 0.078748 -1.828696
0.895148 0.078748 -1.825820
0.903505 0.078748 -1.822934
0.911863 0.078748 -1.820037
0.920220 0.078748 -1.816961
0.928578 0.078748 -1.812999
0.936935 0.078748 -1.810065
0.945293 0.078748 -1.807120
0.953650 0.078748 -1.804163
0.962008 0.078748 -1.801194
0.970365 0.078748 -1.798213
0.978723 0.078748 -1.795219
0.987080 0.078748 -1.792092
0.995438 0.078748 -1.788720
1.003795 0.078748 -1.785736
1.012153 0.078748 -1.781883
1.020510 0.078748 -1.778824
1.028868 0.078748 -1.775751
1.037225 0.078748 -1.772666
1.045583 0.078748 -1.769567
1.053940 0.078748 -1.766454
1.062298 0.078748 -1.763327
1.070655 0.078748 -1.760187
-1.394807 0.095463 -2.297818
-1.386450 0.095463 -2.298306
-1.378092 0.095463 -2.298767
-1.369735 0.095463 -2.299297
-1.361377 0.095463 -2.299297
-1.353020 0.095463 -2.300288
-1.344662 0.095463 -2.300288
-1.336305 0.095463 -2.300871
-1.327947 0.095463 -2.301278
-1.319590 0.095463 -2.301551
-1.311232 0.095463 -2.301691
-1.302875 0.095463 -2.302269
-1.177512 0.087105 -2.103371
-1.169155 0.087105 -2.101604
-1.160797 0.087105 -2.101060
-1.152440 0.087105 -2.102481
-1.144082 0.087105 -2.108437
-1.236015 0.095463 -2.312206
-1.227657 0.095463 -2.315957
-1.219300 0.095463 -2.326402
-1.052150 0.103820 -2.532185
-1.043792 0.103820 -2.529137
-1.035435 0.103820 -2.526083
-1.027077 0.103820 -2.523022
-0.350120 0.095463 -2.276922
-0.341762 0.095463 -2.273784
-0.333405 0.095463 -2.270868
-0.325047 0.095463 -2.267701
-0.316690 0.095463 -2.264930
-0.308332 0.095463 -2.261182
-0.299975 0.095463 -2.258390
-0.291617 0.095463 -2.255321
-0.283260 0.095463 -2.252269
-0.274902 0.095463 -2.248990
-0.266545 0.095463 -2.246161
-0.258187 0.095463 -2.243169
-0.249830 0.095463 -2.239496
-0.241472 0.095463 -2.236636
-0.233115 0.095463 -2.233706
-0.224757 0.095463 -2.230493
-0.216400 0.095463 -2.227504
0.109543 0.087105 -2.111803
0.117900 0.087105 -2.108931
0.126258 0.087105 -2.105602
0.134615 0.087105 -2.102380
0.142973 0.087105 -2.099923
0.151330 0.087105 -2.096587
0.159688 0.087105 -2.093416
0.168045 0.087105 -2.090152
0.176403 0.087105 -2.086881
0.184760 0.087105 -2.084025
0.193118 0.087105 -2.080821
0.201475 0.087105 -2.078080
0.209833 0.087105 -2.074720
0.218190 0.087105 -2.071471
0.226548 0.087105 -2.068799
0.234905 0.087105 -2.065288
0.243263 0.087105 -2.062564
0.251620 0.087105 -2.059225
0.259978 0.087105 -2.055879
0.268335 0.087105 -2.053231
0.276693 0.087105 -2.050026
0.285050 0.087105 -2.046861
0.293408 0.087105 -2.043483
0.301765 0.087105 -2.040938
0.310123 0.087105 -2.037715
0.318480 0.087105 -2.034375
0.636065 0.078748 -1.921703
0.644423 0.078748 -1.919125
0.652780 0.078748 -1.915409
0.661138 0.078748 -1.912814
0.669495 0.078748 -1.909568
0.677853 0.078748 -1.906462
0.686210 0.078748 -1.903840
0.694568 0.078748 -1.900069
0.702925 0.078748 -1.897430
0.711283 0.078748 -1.893635
0.719640 0.078748 -1.890976
0.727998 0.078748 -1.888309
0.736355 0.078748 -1.884480
0.744713 0.078748 -1.881793
0.753070 0.078748 -1.879097
0.761428 0.078748 -1.875232
0.769785 0.078748 -1.872516
0.778143 0.078748 -1.869791
0.786500 0.078748 -1.865890
0.794858 0.078748 -1.863143
0.803215 0.078748 -1.860387
0.811573 0.078748 -1.856449
0.819930 0.078748 -1.853671
0.828288 0.078748 -1.850884
0.836645 0.078748 -1.847846
0.845003 0.078748 -1.844096
0.853360 0.078748 -1.841276
0.861718 0.078748 -1.838446
-1.286160 0.103820 -2.619021
-1.277802 0.103820 -2.615601
-1.269445 0.103820 -2.612716
-1.261087 0.103820 -2.609826
-1.252730 0.103820 -2.606292
-1.244372 0.103820 -2.603167
-1.210942 0.103820 -2.590991
-1.202585 0.103820 -2.587709
-1.194227 0.103820 -2.584774
-1.135725 0.103820 -2.563185
-1.127367 0.103820 -2.560200
-1.119010 0.103820 -2.557049
-1.110652 0.103820 -2.553913
-1.102295 0.103820 -2.550337
-1.093937 0.103820 -2.547328
-1.085580 0.103820 -2.544311
-1.077222 0.103820 -2.541290
-1.068865 0.103820 -2.538261
-1.060507 0.103820 -2.535227
-0.885000 0.087105 -2.195000
-0.876642 0.087105 -2.195000
-0.868285 0.087105 -2.195000
-0.859927 0.087105 -2.195000
-0.851570 0.087105 -2.195000
-0.843212 0.087105 -2.195000
-0.834855 0.087105 -2.195000
-0.826497 0.087105 -2.195000
-0.818140 0.087105 -2.195000
-0.809782 0.087105 -2.195000
-0.801425 0.087105 -2.195000
-0.793067 0.087105 -2.195000
-0.784710 0.087105 -2.195000
-0.776352 0.087105 -2.195000
-0.767995 0.087105 -2.195000
-0.759637 0.087105 -2.195000
-0.751280 0.087105 -2.195000
-0.742922 0.087105 -2.195000
-0.734565 0.087105 -2.195000
-0.726207 0.087105 -2.195000
-0.717850 0.087105 -2.195000
-0.709492 0.087105 -2.195000
-0.701135 0.087105 -2.195000
-0.692777 0.087105 -2.195000
-0.684420 0.087105 -2.195000
-0.676062 0.087105 -2.195000
-0.667705 0.087105 -2.195000
-0.659347 0.087105 -2.195000
-0.650990 0.087105 -2.195000
-0.642632 0.087105 -2.195000
-0.634275 0.087105 -2.195000
-0.625917 0.087105 -2.195000
-0.617560 0.087105 -2.195000
-0.609202 0.087105 -2.195000
-0.600845 0.087105 -2.195000
-0.592487 0.087105 -2.195000
-0.584130 0.087105 -2.195000
-0.575772 0.087105 -2.195000
-0.567415 0.087105 -2.195000
-0.559057 0.087105 -2.195000
-0.550700 0.087105 -2.195000
-0.542342 0.087105 -2.195000
-0.533985 0.087105 -2.195000
-0.525627 0.087105 -2.195000
-0.517270 0.087105 -2.195000
-0.508912 0.087105 -2.195000
-0.500555 0.087105 -2.195000
-0.492197 0.087105 -2.195000
-0.483840 0.087105 -2.195000
-0.475482 0.087105 -2.195000
-0.467125 0.087105 -2.195000
-0.458767 0.087105 -2.195000
-0.450410 0.087105 -2.195000
-0.442052 0.087105 -2.195000
-0.433695 0.087105 -2.195000
-0.425337 0.087105 -2.195000
-0.416980 0.087105 -2.195000
-0.408622 0.087105 -2.195000
-0.400265 0.087105 -2.195000
-0.391907 0.087105 -2.195000
-0.383550 0.087105 -2.195000
-0.375192 0.087105 -2.195000
-0.366835 0.087105 -2.195000
-0.358477 0.087105 -2.195000
-0.350120 0.087105 -2.195000
-0.157897 0.070390 -1.788149
-0.149540 0.070390 -1.776115
-0.141182 0.070390 -1.766805
-0.132825 0.070390 -1.758466
-0.124467 0.070390 -1.751986
-0.116110 0.070390 -1.745832
-0.107752 0.070390 -1.740986
-0.099395 0.070390 -1.736113
-0.091037 0.070390 -1.732184
-0.082680 0.070390 -1.729596
-0.074322 0.070390 -1.727000
-0.065965 0.070390 -1.725488
-0.057607 0.070390 -1.724000
-0.049250 0.070390 -1.723936
-0.040892 0.070390 -1.723936
-0.032535 0.070390 -1.723936
-0.024177 0.070390 -1.724924
-0.015820 0.070390 -1.725912
-0.007462 0.070390 -1.728117
0.000895 0.070390 -1.730771
0.009253 0.070390 -1.733604
0.017610 0.070390 -1.737641
0.025968 0.070390 -1.742646
0.034325 0.070390 -1.748420
0.042683 0.070390 -1.754808
0.051040 0.070390 -1.761610
0.059398 0.070390 -1.770807
0.067755 0.070390 -1.780184
0.076113 0.070390 -1.795916
0.385340 0.078748 -2.015071
0.393698 0.078748 -2.011649
0.402055 0.078748 -2.008667
0.410413 0.078748 -2.005859
0.418770 0.078748 -2.002412
0.427128 0.078748 -1.999325
0.435485 0.078748 -1.996562
0.443843 0.078748 -1.993102
0.452200 0.078748 -1.990412
0.460558 0.078748 -1.987217
0.468915 0.078748 -1.984183
0.477273 0.078748 -1.981300
0.485630 0.078748 -1.977782
0.493988 0.078748 -1.974417
0.502345 0.078748 -1.971815
0.510703 0.078748 -1.968269
0.519060 0.078748 -1.965668
0.527418 0.078748 -1.962250
0.535775 0.078748 -1.959115
0.544133 0.078748 -1.956197
0.552490 0.078748 -1.952604
0.560848 0.078748 -1.950110
0.569205 0.078748 -1.946497
0.577563 0.078748 -1.943987
0.585920 0.078748 -1.940354
0.594278 0.078748 -1.937827
0.602635 0.078748 -1.934175
0.610993 0.078748 -1.931631
0.619350 0.078748 -1.927958
0.627708 0.078748 -1.925398
0.978723 0.070390 -1.799973
0.987080 0.070390 -1.796989
0.995438 0.070390 -1.793993
1.003795 0.070390 -1.790984
1.012153 0.070390 -1.787963
1.020510 0.070390 -1.784930
1.028868 0.070390 -1.781883
1.037225 0.070390 -1.778824
1.045583 0.070390 -1.775751
1.053940 0.070390 -1.772666
1.062298 0.070390 -1.769566
1.070655 0.070390 -1.766453
-1.394807 0.087105 -2.295422
-1.386450 0.087105 -2.295878
-1.378092 0.087105 -2.296414
-1.369735 0.087105 -2.296820
-1.361377 0.087105 -2.297405
-1.353020 0.087105 -2.297405
-1.344662 0.087105 -2.297803
-1.336305 0.087105 -2.298397
-1.327947 0.087105 -2.298590
-1.319590 0.087105 -2.298786
-1.311232 0.087105 -2.299388
-1.302875 0.087105 -2.299417
-1.177512 0.078748 -2.096300
-1.169155 0.078748 -2.093659
-1.160797 0.078748 -2.093010
-1.152440 0.078748 -2.093810
-1.144082 0.078748 -2.099362
-1.236015 0.087105 -2.309869
-1.227657 0.087105 -2.312959
-1.219300 0.087105 -2.322876
-1.135725 0.095463 -2.568280
-1.127367 0.095463 -2.565294
-1.119010 0.095463 -2.562315
-1.110652 0.095463 -2.559329
-1.102295 0.095463 -2.556338
-1.093937 0.095463 -2.553340
-1.085580 0.095463 -2.549631
-1.077222 0.095463 -2.546610
-1.068865 0.095463 -2.543614
-1.060507 0.095463 -2.540611
-1.052150 0.095463 -2.537383
-1.043792 0.095463 -2.534347
-1.035435 0.095463 -2.531305
-0.299975 0.087105 -2.263964
-0.291617 0.087105 -2.261034
-0.283260 0.087105 -2.257476
-0.274902 0.087105 -2.254673
-0.266545 0.087105 -2.251675
-0.258187 0.087105 -2.248269
-0.249830 0.087105 -2.245231
-0.241472 0.087105 -2.242353
-0.233115 0.087105 -2.239388
-0.224757 0.087105 -2.235693
-0.216400 0.087105 -2.232820
-0.166255 0.070390 -1.808987
0.084470 0.070390 -1.822205
0.109543 0.078748 -2.117258
0.117900 0.078748 -2.114343
0.126258 0.078748 -2.111033
0.134615 0.078748 -2.107708
0.142973 0.078748 -2.105424
0.151330 0.078748 -2.102073
0.159688 0.078748 -2.098708
0.168045 0.078748 -2.095720
0.176403 0.078748 -2.092466
0.184760 0.078748 -2.089506
0.193118 0.078748 -2.086165
0.201475 0.078748 -2.083025
0.209833 0.078748 -2.080345
0.218190 0.078748 -2.077140
0.226548 0.078748 -2.073841
0.234905 0.078748 -2.070975
0.243263 0.078748 -2.067747
0.251620 0.078748 -2.064963
0.259978 0.078748 -2.061470
0.268335 0.078748 -2.058298
0.276693 0.078748 -2.055425
0.285050 0.078748 -2.052291
0.293408 0.078748 -2.049310
0.301765 0.078748 -2.045943
0.310123 0.078748 -2.043154
0.318480 0.078748 -2.040006
0.326838 0.078748 -2.036865
0.335195 0.078748 -2.033465
0.343553 0.078748 -2.030636
0.351910 0.078748 -2.027601
0.360268 0.078748 -2.024281
0.368625 0.078748 -2.020861
0.376983 0.078748 -2.018484
0.727998 0.070390 -1.893636
0.736355 0.070390 -1.889829
0.744713 0.070390 -1.887159
0.753070 0.070390 -1.884480
0.761428 0.070390 -1.880639
0.769785 0.070390 -1.877940
0.778143 0.070390 -1.875040
0.786500 0.070390 -1.871355
0.794858 0.070390 -1.868627
0.803215 0.070390 -1.865890
0.811573 0.070390 -1.861975
0.819930 0.070390 -1.859217
0.828288 0.070390 -1.856448
0.836645 0.070390 -1.852495
0.845003 0.070390 -1.849705
0.853360 0.070390 -1.846906
0.861718 0.070390 -1.844095
0.870075 0.070390 -1.840089
0.878433 0.070390 -1.837256
0.886790 0.070390 -1.834413
0.895148 0.070390 -1.831560
0.903505 0.070390 -1.828695
0.911863 0.070390 -1.824621
0.920220 0.070390 -1.821732
0.928578 0.070390 -1.818833
0.936935 0.070390 -1.815922
0.945293 0.070390 -1.812999
0.953650 0.070390 -1.809966
0.962008 0.070390 -1.805905
0.970365 0.070390 -1.802945
-1.294517 0.095463 -2.627240
-1.286160 0.095463 -2.624221
-1.277802 0.095463 -2.621352
-1.269445 0.095463 -2.618480
-1.261087 0.095463 -2.614742
-1.252730 0.095463 -2.611856
-1.244372 0.095463 -2.608967
-1.210942 0.095463 -2.596485
-1.202585 0.095463 -2.593567
-1.194227 0.095463 -2.590509
-1.185870 0.095463 -2.586883
-0.885000 0.078748 -2.182117
-0.876642 0.078748 -2.182117
-0.868285 0.078748 -2.182117
-0.859927 0.078748 -2.182117
-0.851570 0.078748 -2.182117
-0.843212 0.078748 -2.182117
-0.834855 0.078748 -2.182117
-0.826497 0.078748 -2.182117
-0.818140 0.078748 -2.182117
-0.809782 0.078748 -2.182117
-0.801425 0.078748 -2.182117
-0.793067 0.078748 -2.182117
-0.784710 0.078748 -2.182117
-0.776352 0.078748 -2.182117
-0.767995 0.078748 -2.182117
-0.759637 0.078748 -2.182117
-0.751280 0.078748 -2.182117
-0.742922 0.078748 -2.182117
-0.734565 0.078748 -2.182117
-0.726207 0.078748 -2.182117
-0.717850 0.078748 -2.182117
-0.709492 0.078748 -2.182117
-0.701135 0.078748 -2.182117
-0.692777 0.078748 -2.182117
-0.684420 0.078748 -2.182117
-0.676062 0.078748 -2.182117
-0.667705 0.078748 -2.182117
-0.659347 0.078748 -2.182117
-0.650990 0.078748 -2.182117
-0.642632 0.078748 -2.182117
-0.634275 0.078748 -2.182117
-0.625917 0.078748 -2.182117
-0.617560 0.078748 -2.182117
-0.609202 0.078748 -2.182117
-0.600845 0.078748 -2.182117
-0.592487 0.078748 -2.182117
-0.584130 0.078748 -2.182117
-0.575772 0.078748 -2.182117
-0.567415 0.078748 -2.182117
-0.559057 0.078748 -2.182117
-0.550700 0.078748 -2.182117
-0.542342 0.078748 -2.182117
-0.533985 0.078748 -2.182117
-0.525627 0.078748 -2.182117
-0.517270 0.078748 -2.182117
-0.508912 0.078748 -2.182117
-0.500555 0.078748 -2.182117
-0.492197 0.078748 -2.182117
-0.483840 0.078748 -2.182117
-0.475482 0.078748 -2.182117
-0.467125 0.078748 -2.182117
-0.458767 0.078748 -2.182117
-0.450410 0.078748 -2.182117
-0.442052 0.078748 -2.182117
-0.433695 0.078748 -2.182117
-0.425337 0.078748 -2.182117
-0.416980 0.078748 -2.182117
-0.408622 0.078748 -2.182117
-0.400265 0.078748 -2.182117
-0.391907 0.078748 -2.182117
-0.383550 0.078748 -2.182117
-0.375192 0.078748 -2.182117
-0.366835 0.078748 -2.182117
-0.358477 0.078748 -2.182117
-0.350120 0.078748 -2.182117
-0.341762 0.078748 -2.182117
-0.333405 0.078748 -2.182117
-0.325047 0.078748 -2.182117
-0.316690 0.078748 -2.182117
-0.308332 0.078748 -2.182117
-0.299975 0.078748 -2.182117
-0.132825 0.062033 -1.758466
-0.124467 0.062033 -1.751429
-0.116110 0.062033 -1.745832
-0.107752 0.062033 -1.740986
-0.099395 0.062033 -1.736113
-0.091037 0.062033 -1.733078
-0.082680 0.062033 -1.729596
-0.074322 0.062033 -1.727092
-0.065965 0.062033 -1.725570
-0.057607 0.062033 -1.724042
-0.049250 0.062033 -1.723605
-0.040892 0.062033 -1.723605
-0.032535 0.062033 -1.723188
-0.024177 0.062033 -1.724758
-0.015820 0.062033 -1.726000
-0.007462 0.062033 -1.728233
0.000895 0.062033 -1.730771
0.009253 0.062033 -1.734301
0.017610 0.062033 -1.737820
0.025968 0.062033 -1.742646
0.034325 0.062033 -1.747623
0.042683 0.062033 -1.754543
0.452200 0.070390 -1.995491
0.460558 0.070390 -1.992154
0.468915 0.070390 -1.989538
0.477273 0.070390 -1.986127
0.485630 0.070390 -1.983574
0.493988 0.070390 -1.980207
0.502345 0.070390 -1.976782
0.510703 0.070390 -1.974012
0.519060 0.070390 -1.970717
0.527418 0.070390 -1.967963
0.535775 0.070390 -1.964714
0.544133 0.070390 -1.961148
0.552490 0.070390 -1.958676
0.560848 0.070390 -1.955091
0.569205 0.070390 -1.952604
0.577563 0.070390 -1.949000
0.585920 0.070390 -1.945950
0.594278 0.070390 -1.942873
0.602635 0.070390 -1.939737
0.610993 0.070390 -1.936710
0.619350 0.070390 -1.933486
0.627708 0.070390 -1.930510
0.636065 0.070390 -1.927197
0.644423 0.070390 -1.924272
0.652780 0.070390 -1.921702
0.661138 0.070390 -1.917996
0.669495 0.070390 -1.915409
0.677853 0.070390 -1.911680
0.686210 0.070390 -1.909075
0.694568 0.070390 -1.905444
0.702925 0.070390 -1.902701
0.711283 0.070390 -1.900029
0.719640 0.070390 -1.896286
-1.394807 0.078748 -2.293059
-1.386450 0.078748 -2.293526
-1.378092 0.078748 -2.293580
-1.369735 0.078748 -2.294043
-1.361377 0.078748 -2.294518
-1.353020 0.078748 -2.295028
-1.344662 0.078748 -2.295471
-1.336305 0.078748 -2.295510
-1.327947 0.078748 -2.296012
-1.319590 0.078748 -2.296309
-1.311232 0.078748 -2.296502
-1.302875 0.078748 -2.296997
-1.177512 0.070390 -2.089956
-1.169155 0.070390 -2.085854
-1.160797 0.070390 -2.085655
-1.152440 0.070390 -2.085408
-1.144082 0.070390 -2.089798
-1.244372 0.078748 -2.304447
-1.236015 0.078748 -2.306596
-1.227657 0.078748 -2.309699
-1.219300 0.078748 -2.319059
-1.210942 0.087105 -2.602207
-1.202585 0.087105 -2.598537
-1.194227 0.087105 -2.595624
-1.185870 0.087105 -2.592703
-1.135725 0.087105 -2.574195
-1.127367 0.087105 -2.571211
-1.119010 0.087105 -2.567667
-1.110652 0.087105 -2.564592
-1.102295 0.087105 -2.561442
-1.093937 0.087105 -2.558457
-1.085580 0.087105 -2.555464
-1.077222 0.087105 -2.552467
-1.068865 0.087105 -2.549461
-1.060507 0.087105 -2.545982
-1.052150 0.087105 -2.542983
-0.249830 0.078748 -2.250937
-0.241472 0.078748 -2.247221
-0.233115 0.078748 -2.244299
-0.224757 0.078748 -2.241399
-0.216400 0.078748 -2.238345
-0.166255 0.062033 -1.809782
-0.157897 0.062033 -1.790486
-0.149540 0.062033 -1.775862
-0.141182 0.062033 -1.765451
0.051040 0.062033 -1.761144
0.059398 0.062033 -1.769491
0.067755 0.062033 -1.781043
0.076113 0.062033 -1.798160
0.084470 0.062033 -1.822480
0.142973 0.070390 -2.110868
0.151330 0.070390 -2.107536
0.159688 0.070390 -2.104189
0.168045 0.070390 -2.101252
0.176403 0.070390 -2.098014
0.184760 0.070390 -2.094917
0.193118 0.070390 -2.091724
0.201475 0.070390 -2.088463
0.209833 0.070390 -2.085943
0.218190 0.070390 -2.082496
0.226548 0.070390 -2.079490
0.234905 0.070390 -2.076202
0.243263 0.070390 -2.073141
0.251620 0.070390 -2.069976
0.259978 0.070390 -2.067193
0.268335 0.070390 -2.064033
0.276693 0.070390 -2.060707
0.285050 0.070390 -2.057618
0.293408 0.070390 -2.054551
0.301765 0.070390 -2.051524
0.310123 0.070390 -2.048392
0.318480 0.070390 -2.045370
0.326838 0.070390 -2.042291
0.335195 0.070390 -2.039155
0.343553 0.070390 -2.035955
0.351910 0.070390 -2.032876
0.360268 0.070390 -2.029912
0.368625 0.070390 -2.026534
0.376983 0.070390 -2.023393
0.385340 0.070390 -2.020815
0.393698 0.070390 -2.017462
0.402055 0.070390 -2.014159
0.410413 0.070390 -2.010952
0.418770 0.070390 -2.008219
0.427128 0.070390 -2.004852
0.435485 0.070390 -2.001631
0.443843 0.070390 -1.998956
0.836645 0.062033 -1.858046
0.845003 0.062033 -1.855276
0.853360 0.062033 -1.852496
0.861718 0.062033 -1.849706
0.870075 0.062033 -1.845725
0.878433 0.062033 -1.842913
0.886790 0.062033 -1.840090
0.895148 0.062033 -1.837257
0.903505 0.062033 -1.833222
0.911863 0.062033 -1.830366
0.920220 0.062033 -1.827499
0.928578 0.062033 -1.824621
0.936935 0.062033 -1.821732
0.945293 0.062033 -1.817627
0.953650 0.062033 -1.814714
0.962008 0.062033 -1.811789
0.970365 0.062033 -1.808852
0.978723 0.062033 -1.805904
0.987080 0.062033 -1.802944
0.995438 0.062033 -1.799972
1.003795 0.062033 -1.796533
1.012153 0.062033 -1.793573
1.020510 0.062033 -1.789753
1.028868 0.062033 -1.786729
1.037225 0.062033 -1.783693
1.045583 0.062033 -1.780643
1.053940 0.062033 -1.777581
1.062298 0.062033 -1.774505
1.070655 0.062033 -1.771416
-1.294517 0.087105 -2.632795
-1.286160 0.087105 -2.629942
-1.277802 0.087105 -2.626901
-1.269445 0.087105 -2.623366
-1.261087 0.087105 -2.620497
-1.252730 0.087105 -2.617623
-1.244372 0.087105 -2.614222
-0.893357 0.070390 -2.169213
-0.885000 0.070390 -2.169213
-0.876642 0.070390 -2.169213
-0.868285 0.070390 -2.169213
-0.859927 0.070390 -2.169213
-0.851570 0.070390 -2.169213
-0.843212 0.070390 -2.169213
-0.834855 0.070390 -2.169213
-0.826497 0.070390 -2.169213
-0.818140 0.070390 -2.169213
-0.809782 0.070390 -2.169213
-0.801425 0.070390 -2.169213
-0.793067 0.070390 -2.169213
-0.784710 0.070390 -2.169213
-0.776352 0.070390 -2.169213
-0.767995 0.070390 -2.169213
-0.759637 0.070390 -2.169213
-0.751280 0.070390 -2.169213
-0.742922 0.070390 -2.169213
-0.734565 0.070390 -2.169213
-0.726207 0.070390 -2.169213
-0.717850 0.070390 -2.169213
-0.709492 0.070390 -2.169213
-0.701135 0.070390 -2.169213
-0.692777 0.070390 -2.169213
-0.684420 0.070390 -2.169213
-0.676062 0.070390 -2.169213
-0.667705 0.070390 -2.169213
-0.659347 0.070390 -2.169213
-0.650990 0.070390 -2.169213
-0.642632 0.070390 -2.169213
-0.634275 0.070390 -2.169213
-0.625917 0.070390 -2.169213
-0.617560 0.070390 -2.169213
-0.609202 0.070390 -2.169213
-0.600845 0.070390 -2.169213
-0.592487 0.070390 -2.169213
-0.584130 0.070390 -2.169213
-0.575772 0.070390 -2.169213
-0.567415 0.070390 -2.169213
-0.559057 0.070390 -2.169213
-0.550700 0.070390 -2.169213
-0.542342 0.070390 -2.169213
-0.533985 0.070390 -2.169213
-0.525627 0.070390 -2.169213
-0.517270 0.070390 -2.169213
-0.508912 0.070390 -2.169213
-0.500555 0.070390 -2.169213
-0.492197 0.070390 -2.169213
-0.483840 0.070390 -2.169213
-0.475482 0.070390 -2.169213
-0.467125 0.070390 -2.169213
-0.458767 0.070390 -2.169213
-0.450410 0.070390 -2.169213
-0.442052 0.070390 -2.169213
-0.433695 0.070390 -2.169213
-0.425337 0.070390 -2.169213
-0.416980 0.070390 -2.169213
-0.408622 0.070390 -2.169213
-0.400265 0.070390 -2.169213
-0.391907 0.070390 -2.169213
-0.383550 0.070390 -2.169213
-0.375192 0.070390 -2.169213
-0.366835 0.070390 -2.169213
-0.358477 0.070390 -2.169213
-0.350120 0.070390 -2.169213
-0.341762 0.070390 -2.169213
-0.333405 0.070390 -2.169213
-0.325047 0.070390 -2.169213
-0.316690 0.070390 -2.169213
-0.308332 0.070390 -2.169213
-0.299975 0.070390 -2.169213
-0.291617 0.070390 -2.169213
-0.283260 0.070390 -2.169213
-0.274902 0.070390 -2.169213
-0.266545 0.070390 -2.169213
-0.258187 0.070390 -2.169213
-0.249830 0.070390 -2.169213
0.109543 0.070390 -2.122677
0.117900 0.070390 -2.119730
0.126258 0.070390 -2.116439
0.134615 0.070390 -2.113134
0.527418 0.062033 -1.973159
0.535775 0.062033 -1.970442
0.544133 0.062033 -1.967170
0.552490 0.062033 -1.963613
0.560848 0.062033 -1.961029
0.569205 0.062033 -1.957572
0.577563 0.062033 -1.954915
0.585920 0.062033 -1.951496
0.594278 0.062033 -1.948291
0.602635 0.062033 -1.945385
0.610993 0.062033 -1.942132
0.619350 0.062033 -1.939238
0.627708 0.062033 -1.935894
0.636065 0.062033 -1.933054
0.644423 0.062033 -1.929573
0.652780 0.062033 -1.926833
0.661138 0.062033 -1.923167
0.669495 0.062033 -1.920574
0.677853 0.062033 -1.917447
0.686210 0.062033 -1.914277
0.694568 0.062033 -1.911363
0.702925 0.062033 -1.907940
0.711283 0.062033 -1.905324
0.719640 0.062033 -1.901561
0.727998 0.062033 -1.898928
0.736355 0.062033 -1.895809
0.744713 0.062033 -1.892490
0.753070 0.062033 -1.889828
0.761428 0.062033 -1.886008
0.769785 0.062033 -1.883328
0.778143 0.062033 -1.880638
0.786500 0.062033 -1.876783
0.794858 0.062033 -1.874074
0.803215 0.062033 -1.871355
0.811573 0.062033 -1.867464
0.819930 0.062033 -1.864724
0.828288 0.062033 -1.861976
-1.386450 0.070390 -2.290633
-1.378092 0.070390 -2.291257
-1.369735 0.070390 -2.291626
-1.361377 0.070390 -2.291626
-1.353020 0.070390 -2.292243
-1.344662 0.070390 -2.292619
-1.336305 0.070390 -2.293182
-1.327947 0.070390 -2.293229
-1.319590 0.070390 -2.293612
-1.311232 0.070390 -2.294026
-1.302875 0.070390 -2.294215
-1.169155 0.062033 -2.078488
-1.160797 0.062033 -2.077698
-1.152440 0.062033 -2.077837
-1.144082 0.062033 -2.080401
-1.244372 0.070390 -2.301788
-1.236015 0.070390 -2.303926
-1.227657 0.070390 -2.306073
-1.219300 0.070390 -2.315644
-1.210942 0.070390 -2.341411
-1.294517 0.078748 -2.638483
-1.286160 0.078748 -2.635398
-1.277802 0.078748 -2.631939
-1.269445 0.078748 -2.629087
-1.261087 0.078748 -2.626228
-1.252730 0.078748 -2.622733
-1.210942 0.078748 -2.607246
-1.202585 0.078748 -2.604349
-1.194227 0.078748 -2.601444
-1.185870 0.078748 -2.598139
-1.135725 0.078748 -2.579232
-1.127367 0.078748 -2.576282
-1.119010 0.078748 -2.573326
-1.110652 0.078748 -2.570364
-1.102295 0.078748 -2.567054
-1.093937 0.078748 -2.564095
-1.085580 0.078748 -2.560573
-1.077222 0.078748 -2.557585
-1.068865 0.078748 -2.554593
-0.166255 0.053675 -1.812235
-0.157897 0.053675 -1.792700
-0.149540 0.053675 -1.778507
-0.141182 0.053675 -1.766390
-0.132825 0.053675 -1.757691
-0.124467 0.053675 -1.750652
-0.116110 0.053675 -1.745832
-0.107752 0.053675 -1.740986
-0.099395 0.053675 -1.736549
-0.091037 0.053675 -1.733153
-0.082680 0.053675 -1.730176
-0.074322 0.053675 -1.728080
-0.065965 0.053675 -1.726175
-0.057607 0.053675 -1.725032
-0.049250 0.053675 -1.724000
-0.040892 0.053675 -1.724000
-0.032535 0.053675 -1.724000
-0.024177 0.053675 -1.725310
-0.015820 0.053675 -1.726872
-0.007462 0.053675 -1.728233
0.000895 0.053675 -1.731771
0.009253 0.053675 -1.734301
0.017610 0.053675 -1.737925
0.025968 0.053675 -1.742646
0.034325 0.053675 -1.747623
0.042683 0.053675 -1.753829
0.051040 0.053675 -1.760652
0.059398 0.053675 -1.771122
0.067755 0.053675 -1.783902
0.076113 0.053675 -1.800398
0.184760 0.062033 -2.100298
0.193118 0.062033 -2.097258
0.201475 0.062033 -2.093859
0.209833 0.062033 -2.091515
0.218190 0.062033 -2.088088
0.226548 0.062033 -2.085101
0.234905 0.062033 -2.081830
0.243263 0.062033 -2.078728
0.251620 0.062033 -2.075306
0.259978 0.062033 -2.072200
0.268335 0.062033 -2.069370
0.276693 0.062033 -2.066421
0.285050 0.062033 -2.063378
0.293408 0.062033 -2.059811
0.301765 0.062033 -2.056806
0.310123 0.062033 -2.053729
0.318480 0.062033 -2.050830
0.326838 0.062033 -2.047586
0.335195 0.062033 -2.044571
0.343553 0.062033 -2.041383
0.351910 0.062033 -2.038434
0.360268 0.062033 -2.035116
0.368625 0.062033 -2.032218
0.376983 0.062033 -2.028844
0.385340 0.062033 -2.025914
0.393698 0.062033 -2.023141
0.402055 0.062033 -2.019743
0.410413 0.062033 -2.016712
0.418770 0.062033 -2.013267
0.427128 0.062033 -2.010572
0.435485 0.062033 -2.007437
0.443843 0.062033 -2.003966
0.452200 0.062033 -2.001330
0.460558 0.062033 -1.997872
0.468915 0.062033 -1.994592
0.477273 0.062033 -1.992016
0.485630 0.062033 -1.988665
0.493988 0.062033 -1.986037
0.502345 0.062033 -1.982626
0.510703 0.062033 -1.979145
0.519060 0.062033 -1.976688
0.962008 0.053675 -1.817629
0.970365 0.053675 -1.814715
0.978723 0.053675 -1.811716
0.987080 0.053675 -1.807640
0.995438 0.053675 -1.804689
1.003795 0.053675 -1.801726
1.012153 0.053675 -1.798751
1.020510 0.053675 -1.795764
1.028868 0.053675 -1.792765
1.037225 0.053675 -1.789753
1.045583 0.053675 -1.786729
1.053940 0.053675 -1.783693
1.062298 0.053675 -1.780643
1.070655 0.053675 -1.777581
1.079013 0.053675 -1.773946
-0.893357 0.062033 -2.156222
-0.885000 0.062033 -2.156222
-0.876642 0.062033 -2.156222
-0.868285 0.062033 -2.156222
-0.859927 0.062033 -2.156222
-0.851570 0.062033 -2.156222
-0.843212 0.062033 -2.156222
-0.834855 0.062033 -2.156222
-0.826497 0.062033 -2.156222
-0.818140 0.062033 -2.156222
-0.809782 0.062033 -2.156222
-0.801425 0.062033 -2.156222
-0.793067 0.062033 -2.156222
-0.784710 0.062033 -2.156222
-0.776352 0.062033 -2.156222
-0.767995 0.062033 -2.156222
-0.759637 0.062033 -2.156222
-0.751280 0.062033 -2.156222
-0.742922 0.062033 -2.156222
-0.734565 0.062033 -2.156222
-0.726207 0.062033 -2.156222
-0.717850 0.062033 -2.156222
-0.709492 0.062033 -2.156222
-0.701135 0.062033 -2.156222
-0.692777 0.062033 -2.156222
-0.684420 0.062033 -2.156222
-0.676062 0.062033 -2.156222
-0.667705 0.062033 -2.156222
-0.659347 0.062033 -2.156222
-0.650990 0.062033 -2.156222
-0.642632 0.062033 -2.156222
-0.634275 0.062033 -2.156222
-0.625917 0.062033 -2.156222
-0.617560 0.062033 -2.156222
-0.609202 0.062033 -2.156222
-0.600845 0.062033 -2.156222
-0.592487 0.062033 -2.156222
-0.584130 0.062033 -2.156222
-0.575772 0.062033 -2.156222
-0.567415 0.062033 -2.156222
-0.559057 0.062033 -2.156222
-0.550700 0.062033 -2.156222
-0.542342 0.062033 -2.156222
-0.533985 0.062033 -2.156222
-0.525627 0.062033 -2.156222
-0.517270 0.062033 -2.156222
-0.508912 0.062033 -2.156222
-0.500555 0.062033 -2.156222
-0.492197 0.062033 -2.156222
-0.483840 0.062033 -2.156222
-0.475482 0.062033 -2.156222
-0.467125 0.062033 -2.156222
-0.458767 0.062033 -2.156222
-0.450410 0.062033 -2.156222
-0.442052 0.062033 -2.156222
-0.433695 0.062033 -2.156222
-0.425337 0.062033 -2.156222
-0.416980 0.062033 -2.156222
-0.408622 0.062033 -2.156222
-0.400265 0.062033 -2.156222
-0.391907 0.062033 -2.156222
-0.383550 0.062033 -2.156222
-0.375192 0.062033 -2.156222
-0.366835 0.062033 -2.156222
-0.358477 0.062033 -2.156222
-0.350120 0.062033 -2.156222
-0.341762 0.062033 -2.156222
-0.333405 0.062033 -2.156222
-0.325047 0.062033 -2.156222
-0.316690 0.062033 -2.156222
-0.308332 0.062033 -2.156222
-0.299975 0.062033 -2.156222
-0.291617 0.062033 -2.156222
-0.283260 0.062033 -2.156222
-0.274902 0.062033 -2.156222
-0.266545 0.062033 -2.156222
-0.258187 0.062033 -2.156222
-0.249830 0.062033 -2.156222
-0.241472 0.062033 -2.156222
-0.233115 0.062033 -2.156222
-0.224757 0.062033 -2.156222
-0.216400 0.062033 -2.156222
-0.208042 0.062033 -2.156222
0.084470 0.053675 -1.822803
0.109543 0.062033 -2.128354
0.117900 0.062033 -2.125095
0.126258 0.062033 -2.121822
0.134615 0.062033 -2.118535
0.142973 0.062033 -2.116286
0.151330 0.062033 -2.112973
0.159688 0.062033 -2.109646
0.168045 0.062033 -2.106747
0.176403 0.062033 -2.103526
0.627708 0.053675 -1.941746
0.636065 0.053675 -1.938123
0.644423 0.053675 -1.935526
0.652780 0.053675 -1.931936
0.661138 0.053675 -1.929389
0.669495 0.053675 -1.925711
0.677853 0.053675 -1.923147
0.686210 0.053675 -1.919448
0.694568 0.053675 -1.916866
0.702925 0.053675 -1.913146
0.711283 0.053675 -1.910547
0.719640 0.053675 -1.907269
0.727998 0.053675 -1.904187
0.736355 0.053675 -1.901561
0.744713 0.053675 -1.897786
0.753070 0.053675 -1.895142
0.761428 0.053675 -1.891530
0.769785 0.053675 -1.888680
0.778143 0.053675 -1.886008
0.786500 0.053675 -1.882175
0.794858 0.053675 -1.879483
0.803215 0.053675 -1.876783
0.811573 0.053675 -1.872914
0.819930 0.053675 -1.870193
0.828288 0.053675 -1.867463
0.836645 0.053675 -1.863557
0.845003 0.053675 -1.860806
0.853360 0.053675 -1.858045
0.861718 0.053675 -1.854373
0.870075 0.053675 -1.851319
0.878433 0.053675 -1.848527
0.886790 0.053675 -1.845725
0.895148 0.053675 -1.841729
0.903505 0.053675 -1.838904
0.911863 0.053675 -1.836069
0.920220 0.053675 -1.833223
0.928578 0.053675 -1.830366
0.936935 0.053675 -1.826303
0.945293 0.053675 -1.823423
0.953650 0.053675 -1.820531
-1.386450 0.062033 -2.288117
-1.378092 0.062033 -2.288462
-1.369735 0.062033 -2.288729
-1.361377 0.062033 -2.289450
-1.353020 0.062033 -2.289723
-1.344662 0.062033 -2.289723
-1.336305 0.062033 -2.290437
-1.327947 0.062033 -2.290717
-1.319590 0.062033 -2.290795
-1.311232 0.062033 -2.291425
-1.169155 0.053675 -2.071225
-1.160797 0.053675 -2.069355
-1.152440 0.053675 -2.069492
-1.144082 0.053675 -2.072016
-1.135725 0.053675 -2.079436
-1.244372 0.062033 -2.299001
-1.236015 0.062033 -2.301161
-1.227657 0.062033 -2.303316
-1.219300 0.062033 -2.311169
-1.210942 0.062033 -2.330046
-1.294517 0.070390 -2.644149
-1.286160 0.070390 -2.640466
-1.277802 0.070390 -2.637629
-1.269445 0.070390 -2.634786
-1.261087 0.070390 -2.631190
-1.252730 0.070390 -2.628230
-1.202585 0.070390 -2.610137
-1.194227 0.070390 -2.606386
-1.185870 0.070390 -2.603487
-1.135725 0.070390 -2.585116
-1.127367 0.070390 -2.582016
-1.119010 0.070390 -2.578513
-1.110652 0.070390 -2.575417
-1.102295 0.070390 -2.572459
-1.093937 0.070390 -2.569497
-1.085580 0.070390 -2.566528
-0.132825 0.045318 -1.760430
-0.124467 0.045318 -1.751531
-0.116110 0.045318 -1.745832
-0.107752 0.045318 -1.740986
-0.099395 0.045318 -1.736549
-0.091037 0.045318 -1.733844
-0.082680 0.045318 -1.730582
-0.074322 0.045318 -1.728080
-0.065965 0.045318 -1.726721
-0.057607 0.045318 -1.725032
-0.049250 0.045318 -1.725000
-0.040892 0.045318 -1.725000
-0.032535 0.045318 -1.725000
-0.024177 0.045318 -1.726000
-0.015820 0.045318 -1.727419
-0.007462 0.045318 -1.729234
0.000895 0.045318 -1.731771
0.009253 0.045318 -1.735299
0.017610 0.045318 -1.738635
0.025968 0.045318 -1.742646
0.034325 0.045318 -1.748313
0.042683 0.045318 -1.755737
0.243263 0.053675 -2.084159
0.251620 0.053675 -2.080935
0.259978 0.053675 -2.077681
0.268335 0.053675 -2.075059
0.276693 0.053675 -2.071546
0.285050 0.053675 -2.068798
0.293408 0.053675 -2.065565
0.301765 0.053675 -2.062179
0.310123 0.053675 -2.059525
0.318480 0.053675 -2.055933
0.326838 0.053675 -2.053256
0.335195 0.053675 -2.049912
0.343553 0.053675 -2.046846
0.351910 0.053675 -2.043611
0.360268 0.053675 -2.040901
0.368625 0.053675 -2.037526
0.376983 0.053675 -2.034519
0.385340 0.053675 -2.031152
0.393698 0.053675 -2.028418
0.402055 0.053675 -2.025016
0.410413 0.053675 -2.022070
0.418770 0.053675 -2.019253
0.427128 0.053675 -2.015820
0.435485 0.053675 -2.012826
0.443843 0.053675 -2.009494
0.452200 0.053675 -2.006552
0.460558 0.053675 -2.003498
0.468915 0.053675 -2.000248
0.477273 0.053675 -1.997211
0.485630 0.053675 -1.994405
0.493988 0.053675 -1.991206
0.502345 0.053675 -1.987795
0.510703 0.053675 -1.985037
0.519060 0.053675 -1.981534
0.527418 0.053675 -1.978630
0.535775 0.053675 -1.975593
0.544133 0.053675 -1.972294
0.552490 0.053675 -1.969619
0.560848 0.053675 -1.966070
0.569205 0.053675 -1.963612
0.577563 0.053675 -1.960045
0.585920 0.053675 -1.956798
0.594278 0.053675 -1.953985
0.602635 0.053675 -1.950445
0.610993 0.053675 -1.947890
